ply
format ascii 1.0
comment VCGLIB generated
element vertex 2287
property float x
property float y
property float z
element face 0
property list uchar int vertex_indices
end_header
-16.202 7.863 12.564 
-10.284 9.669 12.162 
-9.149 10.098 6.871 
-14.331 8.31 6.946 
-10.35 9.711 5.001 
-10.659 9.636 3.299 
-14.969 8.313 3.217 
-14.327 8.436 15.014 
-11.964 9.154 13.663 
-9.473 9.776 11.303 
-11.68 8.528 2.792 
-12.489 9.002 13.827 
-14.962 8.225 4.15 
-5.076 10.695 15.477 
-12.044 9.129 13.612 
-12.348 9.037 8.05 
-4.736 10.87 14.466 
-5.485 11.141 12.327 
-14.696 8.34 15.142 
-15.368 8.177 13.306 
-10.52 9.603 13.45 
-6.66 10.653 15.468 
-11.239 9.437 6.956 
-11.752 9.28 12.454 
-10.443 9.57 10.158 
-5.405 11.164 11.125 
-12.359 9.122 4.192 
-8.37 10.241 3.726 
-6.744 10.747 7.549 
-10.96 9.458 4.406 
-11.542 9.296 15.46 
-6.483 10.512 2.687 
-5.456 11.152 9.361 
-5.178 11.241 16.158 
-5.87 11.053 4.128 
-15.764 8.063 7.217 
-10.03 9.795 11.061 
-7.638 10.426 4.925 
-11.156 9.398 8.127 
-16.706 7.723 16.124 
-15.855 8.032 7.615 
-10.986 9.513 11.753 
-8.895 9.607 10.156 
-10.327 9.649 5.234 
-6.353 10.875 10.83 
-10.543 9.62 7.243 
-11.571 9.283 14.106 
-11.959 9.21 4.301 
-10.864 9.518 4.345 
-11.433 9.323 12.856 
-15.859 8.021 3.919 
-8.252 10.218 5.547 
-7.784 10.5 11.784 
-8.538 10.154 5.123 
-13.038 8.754 11.054 
-13.535 8.431 6.311 
-5.683 9.694 2.691 
-10.3 9.72 8.257 
-15.034 8.308 10.245 
-9.207 9.688 10.882 
-10.333 9.227 9.721 
-9.992 9.654 9.448 
-6.765 10.749 16.071 
-14.207 8.532 10.66 
-11.241 9.464 16.176 
-5.095 8.867 6.312 
-11.573 9.28 13.921 
-14.161 8.221 5.251 
-9.516 9.901 16.025 
-6.517 10.889 3.044 
-9.763 9.846 4.395 
-10.001 8.387 2.693 
-8.28 9.959 10.682 
-9.31 9.962 7.764 
-16.849 7.717 3.713 
-11.597 9.024 6.937 
-14.664 8.343 3.331 
-11.448 9.368 16.364 
-6.141 10.942 12.063 
-5.648 11.115 11.137 
-14.991 8.249 15.861 
-14.265 8.395 5.354 
-7.666 10.469 10.116 
-14.924 7.647 9.848 
-8.184 9.931 9.163 
-12.745 8.91 8.229 
-8.732 9.672 10.241 
-4.871 11.305 15.058 
-11.774 9.271 6.955 
-11.018 9.452 14.478 
-4.712 10.855 6.111 
-5.611 9.941 2.69 
-16.644 7.781 3.631 
-8.454 10.081 11.093 
-11.481 9.331 3.81 
-15.684 8.038 14.953 
-9.265 9.926 9.302 
-10.591 9.578 13.896 
-7.514 10.518 15.6 
-9.391 9.818 10.518 
-14.462 8.387 9.339 
-6.787 10.463 5.639 
-7.837 10.419 9.865 
-13.299 8.742 7.411 
-16.654 7.786 11.963 
-8.254 10.149 9.51 
-9.354 9.959 12.118 
-10.521 9.601 13.55 
-4.965 11.324 8.122 
-16.317 7.883 11.067 
-9.456 9.924 12.535 
-11.649 9.265 15.209 
-10.143 9.712 7.835 
-16.484 7.834 3.419 
-6.796 10.788 16.366 
-15.627 8.102 7.803 
-11.572 9.241 11.126 
-10.7 9.372 10.226 
-8.235 10.072 11.152 
-8.817 9.657 6.036 
-6.846 10.448 5.74 
-16.198 7.934 6.969 
-12.436 9.017 16.229 
-16.307 7.89 12.521 
-14.565 8.358 9.617 
-14.067 8.455 7.151 
-13.897 8.57 14.841 
-14.667 8.327 12.619 
-15.597 8.037 7.433 
-10.374 9.643 13.564 
-9.062 10.04 7.809 
-16.105 7.892 11.558 
-8.487 9.709 2.899 
-8.526 10.286 4.179 
-16.33 7.884 11.301 
-11.671 9.103 11.147 
-7.677 10.49 4.406 
-12.451 8.619 11.283 
-9.95 9.604 5.325 
-6.925 9.101 2.689 
-14.466 8.45 8.661 
-14.896 8.255 7.33 
-15.294 8.197 12.448 
-9.453 9.477 15.465 
-11.645 9.307 5.031 
-6.936 10.424 4.494 
-6.134 10.853 15.471 
-8.546 9.699 5.334 
-10.943 9.192 11.098 
-16.213 7.86 12.344 
-7.477 10.551 4.394 
-12.179 8.863 11.272 
-7.956 10.302 5.903 
-13.426 8.78 15.588 
-15.683 8.033 3.109 
-12.957 8.85 13.354 
-8.454 10.139 5.197 
-10.063 9.791 4.304 
-15.549 8.12 3.802 
-13.746 8.609 8.545 
-10.908 8.83 11.281 
-10.255 9.727 6.019 
-7.588 10.427 4.923 
-14.572 8.418 11.521 
-12.973 8.915 14.186 
-12.309 8.704 11.277 
-11.749 9.219 11.424 
-10.418 9.583 10.397 
-15.304 8.152 15.729 
-15.591 8.11 11.351 
-4.788 11.09 5.813 
-11.577 9.275 7.516 
-9.419 9.528 2.692 
-9.975 8.675 2.694 
-14.966 8.299 3.546 
-13.049 8.834 15.556 
-10.324 9.703 11.061 
-12.071 9.145 4.139 
-9.768 9.903 2.914 
-12.96 8.839 3.821 
-9.35 10.007 3.429 
-11.089 9.427 16.147 
-7.995 10.373 16.198 
-10.768 9.518 5.216 
-14.145 8.551 9.142 
-11.266 9.433 4.433 
-5.227 11.247 9.243 
-16.073 7.976 3.227 
-9.565 9.835 9.719 
-15.892 7.966 3.34 
-8.5 8.69 2.689 
-11.11 9.313 8.659 
-16.366 7.876 14.741 
-9.519 9.217 2.692 
-5.843 11.093 3.103 
-11.65 9.304 4.423 
-15.719 8.083 2.976 
-7.574 10.332 15.468 
-9.757 9.787 4.989 
-9.612 8.743 2.802 
-14.3 8.236 6.255 
-6.854 10.719 15.566 
-6.973 10.678 9.851 
-9.835 9.688 5.824 
-15.533 8.057 7.966 
-5.456 11.171 11.737 
-14.609 8.41 14.413 
-7.166 10.631 11.554 
-9.766 9.843 7.623 
-10.941 9.523 8.335 
-11.374 9.339 12.176 
-15.69 7.869 6.879 
-9.691 9.71 5.847 
-11.184 9.076 2.695 
-10.907 9.473 5.394 
-8.86 10.118 3.1 
-14.161 8.506 4.406 
-4.877 11.329 10.356 
-16.561 7.745 7.723 
-13.953 8.562 3.234 
-6.176 10.929 8.532 
-13.705 8.564 7.148 
-8.221 10.233 6.904 
-6.74 9.904 2.688 
-5.45 9.867 2.691 
-8.359 9.807 6.35 
-8.909 10.08 3.949 
-7.462 10.535 2.691 
-11.979 9.154 11.815 
-7.763 10.444 15.998 
-9.856 9.804 11.673 
-15.734 8.056 11.07 
-15.656 8.04 13.253 
-10.584 9.575 7.543 
-9.837 9.058 2.693 
-9.617 9.752 10.658 
-10.548 9.587 11.77 
-15.43 8.157 11.514 
-14.356 8.132 5.541 
-10.235 9.676 11.274 
-11.061 9.511 3.409 
-15.076 8.197 12.249 
-11.256 9.122 11.273 
-14.938 7.68 10.947 
-10.218 9.695 12.652 
-10.095 9.746 7.04 
-14.088 8.245 5.321 
-11.254 9.43 7.821 
-7.35 10.325 6.329 
-6.433 10.9 4.112 
-8.239 10.299 12.352 
-10.971 9.451 8.546 
-7.574 10.52 8.325 
-13.202 8.768 8.565 
-7.678 9.955 5.763 
-15.554 8.056 11.352 
-6.09 9.803 2.69 
-7.025 10.621 6.866 
-7.357 10.629 7.016 
-7.007 10.125 2.895 
-14.881 8.261 14.072 
-8.035 10.414 7.954 
-14.326 8.495 9.236 
-14.196 8.118 6.65 
-13.357 8.807 2.832 
-9.161 10.064 16.318 
-14.316 7.548 2.785 
-10.625 9.595 8.582 
-5.449 11.155 15.758 
-11.652 9.254 14.682 
-8.559 10.033 6.324 
-8.977 10.125 7.616 
-14.687 8.316 13.562 
-10.04 9.626 2.789 
-9.773 9.882 8.158 
-16.736 7.804 2.587 
-5.788 11.053 12.247 
-8.337 9.761 9.598 
-14.686 8.387 9.42 
-6.217 10.556 15.468 
-7.852 10.485 2.723 
-12.852 8.233 11.284 
-14.975 8.293 9.464 
-14.106 8.267 6.635 
-9.588 9.83 10.009 
-6.956 10.536 6.886 
-5.281 9.58 2.898 
-8.883 10.028 6.116 
-7.461 10.257 5.017 
-7.444 10.591 8.513 
-7.165 10.644 9.843 
-6.055 10.988 10.745 
-7.566 10.022 5.272 
-10.081 9.206 6.772 
-14.754 8.325 4.413 
-10.194 9.221 9.593 
-8.257 10.139 10.574 
-5.875 11.066 2.92 
-8.564 10.216 8.428 
-7.75 9.96 6.723 
-14.202 8.464 7.17 
-11.039 9.499 6.1 
-9.693 9.524 5.648 
-12.391 8.648 7.079 
-5.783 11.047 11.019 
-9.626 9.493 15.466 
-8.294 9.798 10.957 
-11.716 9.29 6.953 
-13.887 8.561 4.196 
-11.836 9.192 8.312 
-14.423 8.479 2.796 
-8.176 10.349 7.105 
-12.359 9.039 15.133 
-13.589 8.664 14.644 
-9.876 9.748 10.034 
-9.143 10.094 3.208 
-15.153 8.235 3.794 
-7.47 10.257 6.4 
-16.071 7.918 14.307 
-9.385 9.903 10.444 
-8.385 10.2 6.255 
-13.68 8.632 8.306 
-10.219 9.235 10.807 
-9.275 10.007 7.36 
-10.941 9.462 5.93 
-15.953 7.957 14.871 
-13.005 8.843 16.046 
-10.874 9.076 10.845 
-7.054 10.653 7.859 
-16.471 7.847 7.314 
-5.339 11.233 3.906 
-4.484 10.029 2.694 
-14.169 8.278 6.328 
-14.892 8.265 13.732 
-15.643 8.024 4.133 
-8.031 10.42 11.036 
-6.802 10.795 6.882 
-8.066 10.271 4.923 
-9.268 9.927 5.525 
-7.444 10.095 5.609 
-10.905 9.474 5.716 
-15.832 7.998 14.57 
-13.091 8.873 6.972 
-9.85 9.802 11.584 
-14.55 8.428 9.05 
-10.09 9.192 5.258 
-7.994 10.379 12.128 
-7.529 10.119 6.305 
-11.145 9.4 11.528 
-12.358 9.03 7.537 
-8.868 9.916 2.69 
-14.665 8.391 9.133 
-12.457 9.002 12.567 
-13.918 8.576 14.95 
-10.462 9.637 7.35 
-9.776 9.824 8.264 
-5.265 11.236 3.338 
-9.845 9.627 10.011 
-8.389 9.729 9.801 
-8.581 9.728 10.739 
-9.238 9.98 7.156 
-14.278 8.462 3.503 
-10.193 9.556 5.613 
-15.61 8.06 14.757 
-10.647 9.619 3.844 
-8.676 10.16 11.838 
-11.48 9.326 6.122 
-11.133 9.417 16.172 
-14.019 8.595 14.869 
-5.152 10.554 2.691 
-4.892 10.881 15.487 
-14.557 8.357 9.846 
-12.398 9.087 13.159 
-9.288 9.832 10.948 
-6.359 10.892 8.509 
-8.178 9.801 11.275 
-14.568 8.42 10.219 
-5.156 11.238 9.037 
-11.989 9.072 11.276 
-13.249 8.667 11.056 
-10.634 9.43 10.731 
-5.574 11.136 7.345 
-11.415 9.384 12.446 
-6.467 10.838 7.426 
-15.697 8.075 12.819 
-11.469 9.341 5.519 
-6.769 10.743 4.298 
-12.242 9.079 13.957 
-10.864 9.529 5.417 
-14.749 8.31 14.258 
-6.708 10.053 15.471 
-8.898 9.915 9.945 
-8.449 10.304 2.924 
-11.14 8.247 2.695 
-11.94 9.22 7.344 
-6.826 9.232 2.688 
-15.521 8.087 14.039 
-6.27 10.932 7.326 
-16.34 7.879 3.753 
-5.094 11.124 7.081 
-7.03 10.723 8.9 
-13.315 8.849 16.096 
-12.259 9.126 7.427 
-14.191 8.538 10.044 
-7.11 10.671 15.474 
-13.551 8.366 4.799 
-6.565 10.835 10.052 
-10.599 9.57 6.135 
-5.471 11.2 8.443 
-10.313 9.382 10.953 
-12.359 9.039 14.436 
-15.728 8.073 6.952 
-15.086 8.219 15.059 
-10.898 9.538 7.557 
-8.626 9.823 6.756 
-11.031 9.5 4.899 
-8.465 10.252 7.919 
-11.762 9.277 7.843 
-16.329 7.89 16.302 
-6.84 10.789 3.402 
-12.743 8.917 13.981 
-16.456 7.795 12.744 
-6.351 10.907 8.005 
-13.561 8.623 9.721 
-5.867 11.044 9.833 
-7.359 10.326 6.112 
-12.649 8.551 7.082 
-9.031 10.072 2.693 
-9.353 9.824 6.988 
-6.348 10.778 7.093 
-14.753 8.321 15.356 
-6.16 10.931 16.232 
-10.182 9.207 2.793 
-16.255 7.908 8.149 
-14.36 8.483 8.499 
-9.329 10.024 11.36 
-4.979 10.921 2.691 
-7.453 10.534 10.266 
-14.291 8.166 6.5 
-8.467 10.14 5.901 
-9.808 9.769 9.801 
-11.394 9.227 2.695 
-14.326 8.31 5.767 
-14.83 7.742 7.077 
-14.879 8.324 3.541 
-16.218 7.919 8.028 
-5.739 11.064 3.712 
-13.403 8.717 14.147 
-16.769 7.747 12.621 
-12.856 8.945 11.806 
-5.857 11.043 10.752 
-15.163 8.192 13.63 
-6.688 10.768 10.913 
-8.643 10.095 5.261 
-12.62 8.955 13.484 
-15.769 7.987 7.443 
-4.582 10.227 2.694 
-10.789 9.359 10.016 
-15.015 7.937 9.239 
-13.836 8.65 14.226 
-4.887 11.348 9.745 
-13.34 8.741 14.964 
-12.49 9.061 13.476 
-11.437 9.311 13.297 
-7.978 10.433 9.511 
-16.906 7.392 5.833 
-15.206 8.165 11.429 
-13.355 8.811 11.073 
-10.227 9.752 13.134 
-5.553 11.122 15.704 
-16.671 7.718 2.525 
-11.708 9.285 8.403 
-8.719 10.109 4.939 
-8.246 10.143 6.187 
-6.85 10.744 8.345 
-13.661 8.714 10.859 
-7.944 10.387 10.83 
-12.485 8.849 11.149 
-9.855 9.799 12.035 
-10.369 9.719 2.824 
-8.945 10.071 3.629 
-16.751 7.756 11.476 
-5.446 11.156 15.863 
-11.858 7.679 2.793 
-11.912 9.179 15.271 
-9.477 9.939 4.237 
-15.707 8.087 16.174 
-8.747 10.197 7.21 
-14.963 8.301 3.819 
-10.924 9.2 10.921 
-7.083 10.652 12.642 
-11.488 9.308 13.867 
-11.675 9.244 12.268 
-6.45 10.909 3.114 
-10.03 9.651 6.925 
-7.974 10.382 12.448 
-8.276 10.218 6.544 
-15.463 8.101 3.437 
-10.089 9.458 5.287 
-8.302 9.249 2.689 
-6.944 10.695 10.952 
-11.33 9.356 11.268 
-12.611 9.022 13.24 
-6.4 9.428 2.689 
-9.479 9.964 2.839 
-14.962 8.243 12.57 
-13.87 8.569 14.439 
-11.274 9.377 15.609 
-5.038 11.304 10.306 
-14.56 8.427 4.106 
-6.577 10.809 12.737 
-8.968 10.126 3.314 
-12.164 8.04 2.695 
-14.693 8.383 10.314 
-16.87 7.221 5.331 
-13.846 8.641 11.23 
-6.983 10.197 2.896 
-9.472 9.507 5.044 
-7.176 9.857 13.193 
-7.516 10.277 6.838 
-6.161 10.929 8.957 
-5.35 11.178 10.133 
-9.352 9.958 8.058 
-14.902 8.258 9.326 
-15.357 8.139 15.564 
-12.743 8.917 11.669 
-15.282 8.134 12.921 
-12.152 9.104 16.168 
-13.445 8.729 3.828 
-11.666 8.984 11.272 
-4.84 11.247 6.83 
-5.997 10.981 12.27 
-12.351 9.098 11.35 
-15.596 8.055 13.433 
-8.978 10.065 4.02 
-15.05 8.276 6.876 
-10.164 9.726 7.706 
-16.06 7.987 4.215 
-5.766 11.054 6.872 
-10.022 9.499 5.009 
-16.896 7.379 4.415 
-14.076 8.519 15.143 
-14.456 8.401 14.75 
-12.563 8.974 13.878 
-10.565 9.255 11.033 
-7.523 10.437 6.023 
-15.365 8.114 13.362 
-14.147 8.28 5.821 
-9.785 8.253 2.693 
-7.088 10.711 10.632 
-9.823 9.804 15.474 
-9.786 9.707 6.107 
-16.079 7.742 7.064 
-16.85 7.119 5.961 
-8.343 10.138 6.431 
-15.558 8.066 12.742 
-6.265 10.926 7.416 
-11.045 9.438 6.32 
-6.041 10.966 8.931 
-11.643 9.306 5.128 
-14.883 8.269 13.43 
-11.863 9.243 7.914 
-11.061 9.493 6.743 
-10.238 9.728 3.513 
-14.746 8.324 15.976 
-5.986 10.985 10.165 
-12.584 9.025 7.255 
-14.132 8.496 15.311 
-9.751 9.91 3.031 
-14.067 8.509 8.133 
-13.145 8.804 2.897 
-14.049 8.52 8.712 
-13.578 8.655 4.294 
-6.864 10.74 10.344 
-11.672 9.299 4.514 
-8.609 10.178 7.601 
-5.035 10.528 2.692 
-6.321 10.664 2.688 
-10.665 9.566 3.342 
-14.538 7.944 2.695 
-13.669 8.656 7.078 
-8.999 10.066 15.714 
-9.567 9.792 5.333 
-7.135 10.686 3.717 
-14.275 8.291 6.82 
-4.894 11.342 10.524 
-9.966 9.649 4.943 
-8.854 9.967 5.612 
-15.037 8.219 10.708 
-14.896 8.325 15.078 
-16.9 7.668 13.596 
-14.145 8.459 3.649 
-9.408 9.93 4.346 
-10.55 9.07 2.693 
-9.736 9.762 6.909 
-8.617 10.092 9.395 
-10.768 9.516 5.625 
-7.768 10.457 4.407 
-14.98 8.234 12.337 
-11.783 7.898 2.695 
-12.364 9.025 3.934 
-4.958 11.329 8.065 
-13.517 8.681 14.047 
-6.152 10.952 10.633 
-15.072 8.216 13.854 
-8.267 10.346 3.904 
-9.561 9.91 8.222 
-10.212 9.7 12.384 
-12.113 9.17 12.281 
-11.077 9.433 13.935 
-7.616 10.18 5.597 
-15.635 8.099 8.298 
-15.655 8.094 15.492 
-12.777 8.907 13.042 
-13.732 8.692 3.413 
-10.458 9.642 5.726 
-16.127 7.359 2.714 
-8.662 10.239 3.132 
-10.443 9.63 15.158 
-5.373 11.179 10.726 
-12.964 8.864 3.307 
-7.96 10.257 2.899 
-12.674 8.998 8.205 
-4.986 9.793 2.692 
-12.19 9.089 14.03 
-11.65 9.274 4.228 
-5.367 11.18 9.913 
-8.856 10.123 8.228 
-8.639 10.067 5.717 
-11.417 9.381 8.086 
-7.272 10.64 3.22 
-4.692 10.771 6.43 
-9.853 9.663 5.323 
-14.678 8.387 10.612 
-8.472 10.223 11.941 
-10.977 9.47 3.129 
-8.78 10.037 5.616 
-10.668 9.606 3.418 
-10.814 9.333 10.509 
-8.264 10.193 6.114 
-8.171 10.263 5.829 
-13.837 8.644 11.751 
-11.645 9.301 11.059 
-16.898 7.295 5.71 
-5.145 11.251 4.218 
-8.181 10.044 15.46 
-15.347 8.131 14.241 
-12.267 9.125 12.868 
-7.849 10.35 5.119 
-9.54 9.834 5.047 
-10.756 9.521 8.162 
-6.966 10.683 9.144 
-6.465 10.863 9.927 
-13.696 8.353 6.213 
-12.775 8.911 15.347 
-7.304 10.579 11.609 
-7.696 10.516 8.642 
-10.624 9.306 2.694 
-8.569 10.008 6.429 
-6.095 10.955 11.662 
-7.295 10.578 8.666 
-7.361 10.565 11.046 
-5.361 11.199 10.328 
-11.272 7.842 2.695 
-11.961 8.872 2.788 
-12.218 9.074 3.777 
-4.945 11.35 4.187 
-11.956 9.125 11.067 
-6.788 10.744 9.837 
-6.382 10.885 3.425 
-6.786 10.795 7.052 
-11.069 9.491 5.02 
-14.983 7.828 10.665 
-6.033 10.144 2.69 
-10.102 8.696 2.905 
-9.463 9.819 6.497 
-11.368 9.342 15.46 
-11.116 9.479 4.434 
-10.749 8.233 2.795 
-8.539 10.173 11.285 
-14.269 8.392 6.118 
-5.979 10.985 8.409 
-4.878 11.342 12.15 
-6.146 10.934 9.508 
-11.57 9.333 7.35 
-12.535 8.985 11.651 
-8.458 10.284 7.89 
-13.206 8.766 7.728 
-14.364 8.485 9.305 
-6.029 11.024 4.009 
-9.99 9.748 7.744 
-10.314 9.503 10.516 
-15.952 7.953 14.161 
-11.261 9.422 3.393 
-8.98 10.073 12.551 
-14.297 8.162 4.933 
-5.352 11.232 7.47 
-8.053 10.294 5.037 
-5.359 11.242 3.338 
-5.855 11.027 12.387 
-10.129 9.367 2.791 
-10.952 9.524 6.349 
-10.939 9.351 10.707 
-5.006 11.285 10.076 
-12.998 8.83 7.074 
-12.097 9.109 7.922 
-15.121 8.189 12.048 
-12.09 9.147 3.535 
-8.973 10.024 5.538 
-13.61 8.249 2.787 
-6.989 10.672 3.825 
-13.646 8.645 13.072 
-4.872 11.328 7.736 
-13.095 8.824 3.117 
-10.093 9.789 11.526 
-15.657 8.089 13.068 
-4.997 10.796 15.479 
-5.567 10.886 6.999 
-10.712 9.598 6.85 
-13.137 8.876 3 
-16.201 7.865 12.246 
-16.18 7.854 3.99 
-8.976 10.122 3.225 
-8.356 10.325 11.971 
-11.927 9.173 12.223 
-9.676 9.808 5.756 
-8.8 9.97 6.333 
-12.363 9.102 3.647 
-9.154 8.799 2.691 
-12.611 9.016 16.072 
-12.032 9.137 14.439 
-13.52 8.476 8.673 
-11.725 9.289 11.816 
-5.996 10.983 11.081 
-8.699 10.22 11.923 
-6.992 10.682 11.215 
-8.069 10.422 12.621 
-6.359 10.868 15.565 
-12.422 9.099 3.317 
-6.381 10.86 3.82 
-10.353 9.645 4.008 
-8.747 10.16 4.43 
-14.468 8.397 12.425 
-4.863 10.734 2.691 
-8.862 10.041 6.329 
-14.968 8.238 13.239 
-14.922 8.224 6.892 
-10.845 8.914 2.695 
-6.335 10.932 7.901 
-16.237 7.912 14.947 
-7.435 10.089 6.583 
-4.877 11.323 8.364 
-7.728 9.544 2.69 
-11.1 9.415 13.236 
-9.35 9.766 6.244 
-14.874 8.301 6.874 
-14.24 8.464 13.561 
-8.454 10.287 3.642 
-10.303 8.777 2.694 
-7.434 10.079 5.482 
-13.937 8.616 7.405 
-14.922 8.313 10.044 
-5.831 11.039 6.87 
-11.664 9.245 12.874 
-14.052 8.545 3.81 
-12.851 7.971 2.695 
-11.435 9.323 13.746 
-12.554 9.034 7.495 
-8.785 10.021 9.587 
-7.466 10.532 10.838 
-15.706 8.075 11.669 
-5.453 11.212 9.159 
-11.474 9.316 15.732 
-14.081 8.51 13.018 
-10.683 9.541 5.037 
-5.861 10.95 6.862 
-10.254 8.181 2.696 
-8.942 10.145 11.882 
-10.25 9.686 16.207 
-12.525 8.981 11.231 
-13.297 8.82 2.81 
-11.148 9.403 12.507 
-14.412 8.01 2.694 
-15.561 8.122 11.969 
-11.55 9.342 4.92 
-10.472 9.646 3.899 
-15.101 8.228 8.664 
-8.844 9.644 10.808 
-11.251 9.38 15.138 
-14.252 8.523 4.135 
-13.896 8.568 13.823 
-10.292 9.666 12.255 
-15.41 7.642 7.069 
-9.374 9.959 16.254 
-14.107 8.217 7.018 
-9.445 9.83 9.336 
-16.383 7.811 11.56 
-16.183 7.856 7.435 
-6.694 10.653 7.081 
-14.675 8.322 9.447 
-10.601 9.378 11.279 
-10.97 9.519 12.305 
-8.491 10.061 15.465 
-6.449 10.862 3.518 
-16.458 7.8 3.613 
-11.934 9.171 13.552 
-6.171 10.745 15.472 
-6.321 10.814 6.863 
-10.444 9.68 5.098 
-7.655 10.542 3.305 
-11.569 8.909 6.917 
-9.267 10.031 3.116 
-11.296 9.363 14.053 
-10.57 9.575 7.298 
-5.162 10.409 2.691 
-9.648 9.812 5.257 
-10.945 8.202 2.794 
-6.851 10.739 3.417 
-10.081 8.797 12.875 
-13.67 8.397 4.407 
-6.873 10.72 11.556 
-11.369 9.33 4.242 
-9.873 9.687 5.99 
-7.954 10.385 10.919 
-16.7 7.662 11.351 
-4.806 11.108 13.916 
-12.069 8.987 2.784 
-7.766 10.485 6.87 
-10.939 9.522 3.402 
-14.148 8.492 11.278 
-12.077 9.178 11.07 
-12.45 9.088 2.905 
-11.279 9.424 4.839 
-15.355 8.074 6.869 
-5.361 10.644 2.69 
-14.973 7.795 10.219 
-16.157 7.884 11.846 
-7.129 10.691 8.826 
-7.489 10.437 4.826 
-15.652 8.095 7.901 
-16.143 7.898 13.955 
-15.297 8.21 16.187 
-12.52 8.995 15.676 
-7.434 10.296 6.618 
-11.299 9.373 15.835 
-5.893 10.293 13.207 
-10.245 9.719 5.824 
-13.134 8.862 3.717 
-7.663 10.471 8.054 
-9.905 9.649 5.425 
-16.581 7.735 7.454 
-12.363 9.091 7.934 
-4.739 10.88 14.663 
-7.777 10.267 5.332 
-6.699 10.764 10.32 
-10.351 9.645 5.409 
-12.101 9.109 11.626 
-9.669 9.809 10.366 
-13.786 8.596 10.72 
-6.775 10.739 3.927 
-13.262 8.762 16.137 
-4.964 10.581 15.476 
-8.561 10.253 7.012 
-4.803 11.135 4.543 
-14.457 8.439 2.841 
-8.235 9.806 9.954 
-8.738 9.69 5.897 
-7.941 10.41 9.631 
-8.675 10.112 5.54 
-10.093 9.64 5.504 
-6.743 10.457 4.536 
-9.209 9.824 6.529 
-5.869 11.041 10.928 
-14.837 8.34 9.444 
-13.293 8.749 8.523 
-9.214 9.564 9.396 
-7.532 10.338 5.41 
-8.245 10.108 9.223 
-6.235 10.915 11.459 
-12.756 8.91 11.932 
-10.23 9.755 13.832 
-5.376 11.174 2.89 
-8.165 10.242 6.116 
-6.174 10.95 2.925 
-16.295 7.846 3.499 
-12.455 8.916 11.05 
-9.035 9.987 6.402 
-16.069 7.891 8.555 
-7.162 10.625 11.221 
-15.212 8.224 11.642 
-5.542 10.158 2.896 
-14.192 8.13 6.413 
-10.568 9.642 6.922 
-5.037 11.269 8.332 
-11.458 9.323 16.044 
-6.849 10.745 7.611 
-9.475 9.92 3.726 
-15.918 7.512 2.706 
-15.042 8.233 14.456 
-15.466 7.496 11.29 
-12.237 9.062 7.809 
-12.828 8.893 11.543 
-11.617 9.085 11.26 
-9.26 9.924 6.115 
-6.457 10.894 7.735 
-12.422 9.077 7.135 
-10.176 9.469 5.638 
-13.572 8.712 3.425 
-7.368 10.592 7.839 
-13.73 8.68 7.541 
-11.678 9.253 3.021 
-8.824 9.676 5.151 
-13.736 8.615 10.448 
-11.339 9.356 16.084 
-10.883 9.094 10.748 
-6.47 10.721 6.858 
-14.557 8.379 16.055 
-8.764 10.164 8.614 
-7.893 10.276 5.578 
-7.209 10.691 6.91 
-7.202 10.617 15.982 
-12.448 9.031 7.101 
-6.835 9.915 2.688 
-16.236 7.915 14.131 
-5.904 10.345 2.69 
-7.468 10.257 5.445 
-7.854 10.357 5.045 
-11.165 9.41 15.518 
-6.832 10.055 2.688 
-4.81 11.152 6.202 
-9.262 9.522 5.397 
-6.047 11.018 3.502 
-7.458 10.262 7.044 
-4.75 10.926 15.35 
-9.433 9.987 7.271 
-7.747 10.442 7.241 
-6.068 10.959 9.546 
-5.069 11.269 4.106 
-9.285 9.515 11.23 
-14.735 8.367 11.833 
-16.854 7.098 6.474 
-8.306 10.234 3.639 
-16.886 7.636 8.432 
-5.228 11.238 10.737 
-7.958 10.407 8.249 
-10.43 9.682 4.521 
-7.115 10.736 12.581 
-5.783 11.049 9.805 
-10.519 9.605 13.263 
-13.677 8.696 7.464 
-8.026 10.285 6.433 
-9.744 9.832 11.531 
-6.158 10.991 6.88 
-8.02 10.418 10.045 
-8.27 10.12 6.543 
-13.48 8.685 7.431 
-8.258 10.253 7.158 
-14.673 8.386 11.004 
-9.303 9.842 6.992 
-10.875 9.095 10.661 
-13.75 8.605 12.354 
-4.781 11.052 4.633 
-10.369 9.648 14.833 
-10.253 9.592 9.36 
-15.869 7.978 15.763 
-6.754 10.746 8.963 
-15.701 7.89 7.069 
-12.053 9.14 2.93 
-10.045 9.494 5.157 
-13.678 8.7 15.026 
-13.513 8.434 10.943 
-13.222 8.779 2.995 
-12.586 8.954 6.948 
-10.983 9.511 11.527 
-7.511 10.176 4.696 
-5.184 11.236 15.559 
-6.037 10.966 7.529 
-13.542 8.75 3.015 
-14.744 8.207 6.861 
-16.465 7.777 8.307 
-11.351 9.358 3.238 
-6.444 10.851 12.468 
-11.27 9.363 4.948 
-16.769 7.759 7.212 
-10.528 8.943 2.691 
-9.318 9.628 11.216 
-10.64 9.413 10.945 
-9.015 9.848 2.691 
-10.679 9.54 8.546 
-7.361 10.559 7.652 
-14.037 8.585 11.247 
-9.066 9.85 11.303 
-12.372 9.027 8.467 
-12.774 8.909 15.698 
-7.622 10.489 11.078 
-13.431 8.714 13.064 
-12.594 8.967 12.366 
-13.455 8.718 15.46 
-7.567 10.434 5.905 
-10.016 9.347 9.932 
-16.839 7.733 7.813 
-16.669 7.781 13.227 
-6.934 10.729 4.274 
-8.537 10.203 12.64 
-16.193 7.938 2.821 
-13.965 8.541 15.442 
-14.267 8.248 4.714 
-8.447 10.119 5.401 
-5.757 11.107 7.249 
-16.042 7.984 3.118 
-10.43 9.622 12.149 
-8.424 10.058 10.551 
-5.389 11.167 11.228 
-9.668 9.85 8.518 
-10.093 9.321 4.702 
-13.473 8.309 10.753 
-11.579 9.26 7.426 
-8.712 10.105 5.825 
-13.666 8.636 10.817 
-9.127 9.55 10.735 
-14.669 8.315 3.994 
-8.358 10.116 6.921 
-13.536 8.546 9.335 
-4.887 11.35 11.354 
-13.162 8.849 7.55 
-14.078 8.511 14.369 
-13.561 8.73 7.635 
-15.277 8.207 14.944 
-10.132 9.518 9.903 
-16.342 7.893 3.321 
-14.536 8.387 14.85 
-13.257 8.829 14.249 
-7.765 10.451 16.102 
-4.865 11.333 7.838 
-14.942 7.704 9.251 
-10.073 9.736 11.525 
-10.932 9.53 8.008 
-7.952 10.234 6.545 
-8.77 10.206 3.128 
-8.271 9.802 5.757 
-12.377 9.021 7.165 
-9.886 8.31 2.802 
-6.757 10.743 11.046 
-11.171 9.425 6.824 
-9.565 9.657 2.799 
-16.915 7.415 4.97 
-10.092 9.527 6.241 
-7.146 10.635 16.15 
-6.568 10.834 7.818 
-10.072 9.81 2.736 
-12.956 8.861 16.126 
-15.723 8.014 15.643 
-14.674 8.317 7.867 
-8.112 8.954 2.688 
-11.073 9.435 15.914 
-16.48 7.784 2.914 
-9.585 9.877 4.09 
-6.855 10.446 5.839 
-12.1 9.112 7.152 
-11.372 9.343 6.409 
-13.854 8.639 3.526 
-11.068 9.361 2.695 
-6.54 10.812 7.316 
-11.311 9.368 3.211 
-12.904 8.925 12.741 
-13.274 8.756 16.052 
-7.645 10.532 3.903 
-7.866 9.552 2.689 
-11.368 9.328 4.778 
-5.055 10.009 2.692 
-10.749 9.606 3.096 
-4.814 11.134 13.17 
-10.972 9.461 6.633 
-9.764 9.818 8.542 
-8.407 9.728 9.947 
-12.279 9.125 13.615 
-13.969 8.542 10.9 
-5.629 11.103 12.229 
-11.594 8.997 5.838 
-14.418 8.48 2.706 
-10.311 9.381 9.132 
-9.611 9.802 5.289 
-14.345 8.151 4.691 
-5.567 11.137 10.151 
-11.909 9.171 12.135 
-11.263 9.433 5.728 
-12.264 9.123 7.751 
-14.662 8.39 9.559 
-12.572 9.031 7.9 
-12.35 9.115 3.024 
-6.599 10.798 16.2 
-9.131 9.664 2.691 
-11.295 9.359 14.249 
-5.092 11.206 15.477 
-9.649 9.92 7.488 
-7.675 10.243 5.645 
-9.511 9.631 5.8 
-14.273 8.449 4.215 
-8.599 10.178 4.336 
-9.951 9.769 7.818 
-7.602 10.483 3.716 
-5.775 9.653 2.691 
-15.89 7.95 11.875 
-5.994 10.981 9.201 
-9.095 9.026 2.691 
-13.868 8.635 3.735 
-15.877 7.953 8.138 
-14.538 8.32 6.865 
-10.693 9.549 13.856 
-8.456 10.235 12.586 
-10.582 9.635 7.52 
-8.895 9.687 6.41 
-8.248 10.357 10.9 
-14.813 8.269 3.673 
-7.75 10.366 6.436 
-6.713 10.793 8.928 
-12.998 8.899 12.9 
-11.489 9.309 15.537 
-13.742 8.622 3.108 
-5.761 11.057 12.704 
-7.747 10.439 7.447 
-11.275 9.36 8.439 
-12.395 9.033 14.058 
-14.592 8.345 12.515 
-12.585 8.959 3.836 
-8.367 10.257 8.109 
-7.7 10.478 3.032 
-5.452 11.205 3.543 
-7.699 9.663 2.806 
-15.088 8.221 14.041 
-11.352 9.404 6.139 
-11.804 9.219 11.271 
-8.864 10.1 11.426 
-5.393 9.734 2.691 
-12.588 8.988 4.401 
-13.035 8.881 3.314 
-5.064 11.276 11.558 
-15.341 8.179 3.689 
-10.48 9.611 13.829 
-8.444 10.108 10.167 
-4.865 11.326 9.03 
-14.018 8.593 7.006 
-6.154 10.928 8.032 
-12.877 8.9 3.61 
-11.848 9.246 7.232 
-7.401 10.148 4.738 
-9.669 9.379 9.853 
-7.44 10.391 6.879 
-13.683 8.504 2.901 
-9.399 9.443 10.23 
-8.555 10.105 9.215 
-4.964 11.301 8.449 
-4.784 11.035 6.124 
-7.176 10.232 2.689 
-11.357 9.406 5.527 
-15.668 8.085 11.803 
-14.955 8.238 10.568 
-14.264 8.514 7.913 
-15.959 8.009 2.902 
-8.563 10.155 3.647 
-15.956 7.934 8.343 
-10.835 9.58 2.997 
-6.048 10.965 7.637 
-13.588 8.661 13.621 
-8.977 9.567 9.662 
-10.255 9.73 5.532 
-6.551 10.818 11.459 
-5.967 10.985 4.247 
-9.953 9.255 6.995 
-8.316 9.943 2.689 
-7.647 10.006 6.256 
-16.405 7.861 7.917 
-10.135 9.547 9.514 
-10.777 9.513 8.03 
-12.657 8.946 11.464 
-13.434 8.721 3.307 
-14.188 8.229 7.025 
-14.154 8.216 6.449 
-12.418 9.083 3.603 
-16.867 7.194 5.117 
-10.294 9.412 11.008 
-11.349 9.314 11.143 
-11.449 9.307 8.541 
-6.659 10.517 2.687 
-11.539 9.282 12.468 
-6.686 9.122 2.807 
-6.253 10.93 8.34 
-15.306 7.573 2.695 
-6.395 10.86 9.223 
-16.368 7.869 12.101 
-14.268 8.462 3.447 
-13.764 8.619 15.844 
-8.251 10.138 8.76 
-6.445 10.84 4.028 
-14.1 8.495 7.07 
-13.48 8.7 15.53 
-7.086 10.651 11.521 
-11.05 9.493 6.345 
-15.7 8.027 14.059 
-10.284 9.668 8.412 
-8.473 10.121 5.33 
-10.162 9.663 10.016 
-11.359 8.258 2.695 
-10.557 9.616 6.72 
-14.15 8.547 9.558 
-5.98 9.413 2.69 
-9.081 9.493 15.464 
-7.172 10.644 8.027 
-13.657 8.646 14.976 
-5.653 11.158 6.923 
-5.056 11.318 4.113 
-12.418 9.076 7.825 
-10.183 9.486 9.361 
-4.697 10.799 6.504 
-14.254 8.516 10.24 
-10.973 9.46 12.772 
-15.678 8.058 2.693 
-16.852 7.16 6.2 
-7.964 10.226 6.145 
-11.294 9.373 16.157 
-4.889 11.319 8.837 
-14.749 8.322 15.249 
-12.347 9.033 13.948 
-14.892 8.256 9.645 
-11.054 9.427 4.098 
-13.656 8.434 5.701 
-9.27 10.044 11.67 
-7.596 10.254 6.503 
-7.176 10.42 6.87 
-9.77 9.773 9.943 
-14.045 8.582 12.52 
-10.379 9.642 13.865 
-6.999 10.676 12.118 
-10.662 9.389 9.871 
-5.633 11.151 8.514 
-6.124 11.005 9.729 
-9.637 9.922 7.995 
-9.842 9.272 11.283 
-16.702 7.727 14.138 
-5.756 9.804 2.69 
-9.696 9.676 6.172 
-9.536 9.842 6.616 
-14.461 8.387 10.629 
-16.85 7.729 2.613 
-13.773 8.664 12.724 
-10.694 9.138 2.694 
-16.865 7.721 14.317 
-8.179 9.915 10.943 
-12.979 8.894 3.486 
-5.457 11.192 6.871 
-9.842 9.881 3.1 
-4.984 10.639 7.104 
-13.371 8.72 7.305 
-7.901 10.234 6.902 
-7.753 10.516 2.996 
-10.755 9.584 6.243 
-13.036 8.833 15.749 
-14.372 8.414 9.908 
-12.798 8.863 3.637 
-5.329 11.184 4.192 
-7.958 10.389 16.083 
-7.753 9.967 5.406 
-15.988 7.919 8.209 
-10.026 8.766 2.693 
-11.349 9.346 15.989 
-10.725 9.594 7.684 
-10.164 9.611 4.421 
-13.415 8.777 4.027 
-13.991 8.266 7.036 
-10.968 9.46 8.342 
-15.542 8.125 13.519 
-6.367 10.933 3.206 
-9.761 9.385 6.105 
-6.087 10.972 3.199 
-10.224 9.626 6.906 
-9.574 9.949 11.243 
-6.848 10.742 3.013 
-15.288 8.197 12.056 
-13.354 8.799 14.497 
-7.733 10.504 3.623 
-13.573 8.663 7.941 
-9.792 9.658 10.442 
-9.874 9.435 5.582 
-5.734 11.063 12.32 
-13.365 8.728 13.966 
-6.753 10.747 9.448 
-6.854 10.447 4.944 
-10.779 9.515 11.631 
-16.456 7.861 4.216 
-13.558 8.73 11.729 
-11.352 9.335 4.732 
-14.64 8.398 9.919 
-16.554 7.75 2.533 
-7.497 10.32 2.688 
-14.96 8.235 10.418 
-15.593 8.039 11.813 
-14.951 8.304 12.854 
-10.74 9.534 15.759 
-14.187 8.125 5.141 
-10.463 9.639 6.43 
-6.349 10.939 2.705 
-16.451 7.72 2.696 
-13.157 8.639 11.26 
-12.361 9.095 7.149 
-13.071 8.831 3.298 
-9.799 9.649 5.636 
-14.043 8.582 13.162 
-14.375 8.485 14.383 
-16.78 7.678 8.309 
-13.061 8.811 3.999 
-11.749 9.154 2.786 
-10.166 9.171 11.282 
-15.684 8.04 13.645 
-13.745 7.404 2.7 
-13.687 8.625 8.822 
-10.669 9.539 3.724 
-10.148 9.423 4.843 
-7.685 10.466 10.449 
-12.34 9.12 2.711 
-13.57 8.728 13.662 
-11.169 9.397 13.538 
-12.059 9.123 8.204 
-12.57 9.029 8.309 
-7.361 10.571 15.833 
-8.24 10.223 6.718 
-7.256 10.615 9.941 
-8.157 10.158 6.429 
-16.768 7.74 3.729 
-6.965 10.688 15.97 
-10.32 9.72 11.71 
-10.801 9.401 10.23 
-11.642 9.306 4.934 
-10.262 9.685 16.103 
-15.23 7.706 11.278 
-8.192 9.787 9.878 
-9.163 10.029 8.326 
-4.939 11.332 3.803 
-7.051 10.657 8.032 
-9.221 9.858 5.143 
-5.754 11.107 4.108 
-10.836 9.507 14.383 
-12.417 9.077 7.07 
-14.486 8.445 10.813 
-15.981 7.932 13.143 
-9.051 9.92 10.95 
-15.351 8.131 14.133 
-10.149 9.66 11.355 
-6.553 10.539 6.876 
-16.864 7.667 12.298 
-6.733 10.246 2.687 
-13.676 8.695 7.032 
-10.065 9.794 3.812 
-6.987 10.674 4.235 
-7.192 9.848 2.688 
-15.451 8.105 11.279 
-15.096 8.259 12.041 
-8.257 10.15 10.421 
-16.015 7.977 4.076 
-13.221 8.833 11.411 
-12.042 9.214 3.318 
-10.897 9.477 5.91 
-13.468 8.756 7.497 
-11.201 9.392 14.098 
-7.879 10.259 6.399 
-8.437 10.293 4.29 
-9.732 9.838 11.43 
-13.992 8.579 6.872 
-6.111 10.182 13.196 
-8.831 8.818 2.693 
-9.676 9.862 12.647 
-15.49 8.099 14.75 
-13.515 8.455 10.041 
-15.978 7.993 13.932 
-9.56 9.916 8.138 
-14.47 8.386 9.418 
-13.021 8.841 15.323 
-9.364 9.856 5.037 
-7 10.679 12.703 
-9.747 9.658 5.886 
-8.265 10.361 2.916 
-13.355 8.79 11.633 
-4.896 11.343 9.657 
-14.913 8.268 14.896 
-14.601 7.792 2.694 
-5.994 10.981 10.886 
-16.387 7.863 16.165 
-5.984 10.981 8.859 
-14.972 8.252 14.955 
-11.462 9.357 2.804 
-6.698 10.238 15.47 
-13.872 8.636 7.229 
-6.555 10.836 9.264 
-9.248 9.541 10.306 
-10.278 9.736 12.59 
-10.768 9.272 11.073 
-7.545 10.226 6.123 
-12.735 7.744 2.79 
-14.867 8.334 7.043 
-16.327 7.878 3.816 
-15.318 8.193 3.806 
-8.031 10.41 16.366 
-9.229 9.835 11.018 
-12.971 8.845 12.048 
-14.9 8.269 3.066 
-14.103 8.29 6.198 
-8.673 10.236 3.231 
-15.96 7.996 3.912 
-14.036 7.388 2.901 
-13.985 8.6 11.463 
-15.255 8.238 8.411 
-13.896 8.628 7.553 
-8.673 10.161 12.534 
-10.348 9.527 9.332 
-6.65 10.777 8.145 
-6.471 10.839 10.725 
-8.763 10.194 12.547 
-7.689 10.464 9.016 
-6.175 10.532 2.689 
-10.331 9.716 6.75 
-13.491 8.752 13.129 
-7.803 10.491 9.95 
-9.159 10.039 7.633 
-13.481 7.791 2.902 
-16.904 7.409 5.411 
-10.071 9.629 6 
-10.966 8.286 2.793 
-12.322 9.05 15.661 
-5.681 11.079 4.341 
-11.466 9.333 5.815 
-6.258 10.921 8.431 
-9.527 9.906 15.828 
-16.286 7.827 8.512 
-14.092 8.24 6.125 
-12.079 9.115 7.432 
-12.527 8.983 13.761 
-15.273 8.141 12.839 
-12.542 9.033 4.292 
-9.663 9.653 7.096 
-10.72 9.594 6.946 
-16.162 7.937 7.911 
-13.583 8.422 4.415 
-9.538 9.795 6.111 
-13.371 8.802 3.118 
-10.618 9.427 9.725 
-9.747 9.35 9.662 
-16.588 7.809 14.246 
-9.714 9.806 9.14 
-10.805 9.238 2.899 
-11.008 9.445 12.525 
-7.477 10.225 15.465 
-13.436 8.649 7.155 
-10.219 9.726 13.546 
-9.736 9.757 4.93 
-12.248 9.081 15.543 
-11.357 9.403 12.552 
-14.257 8.452 9.466 
-10.194 9.717 5.422 
-11.044 8.83 11.298 
-9.151 10.046 3.622 
-15.651 8.018 11.785 
-9.623 9.209 2.8 
-13.939 8.554 13.754 
-14.511 8.37 11.507 
-14.407 8.478 15.186 
-10.061 9.78 6.874 
-14.06 8.511 10.532 
-12.564 8.532 7.069 
-15.954 7.965 8.612 
-11.935 7.724 2.696 
-11.387 9.345 15.355 
-5.031 11.342 9.105 
-14.498 8.371 7.919 
-15.874 8.029 7.069 
-15.016 8.223 12.542 
-13.752 8.611 10.938 
-8.743 10.196 3.932 
-16.567 7.742 3.938 
-9.026 9.912 10.738 
-15.349 8.131 13.966 
-11.442 9.309 8.455 
-15.802 8.001 14.244 
-10.655 9.616 5.451 
-12.618 7.549 2.901 
-13.59 8.737 8.543 
-9.749 9.827 8.402 
-5.897 9.81 2.69 
-14.213 8.462 10.065 
-11.193 9.449 8.028 
-16.866 7.221 5.02 
-12.169 9.116 3.604 
-9.3 9.79 11.23 
-7.392 10.193 4.622 
-13.774 8.598 13.25 
-13.661 8.631 7.165 
-8.857 10.115 15.734 
-13.545 8.63 6.853 
-5.345 11.18 11.05 
-10.976 9.449 6.706 
-12.068 9.185 7.895 
-12.575 9.029 8.133 
-6.988 10.682 11.738 
-10.278 9.723 6.233 
-5.35 11.177 10.238 
-11.264 9.374 15.035 
-16.856 7.734 7.255 
-14.652 8.395 8.718 
-8.269 10.315 8.426 
-6.915 10.703 16.046 
-7.361 10.597 15.506 
-7.3 10.581 9.283 
-8.338 10.332 11.533 
-10.546 9.588 7.417 
-8.742 10.046 5.05 
-9.301 9.919 9.933 
-12.292 9.126 14.361 
-9.474 9.924 15.689 
-10.773 9.548 4.519 
-12.44 9.006 7.732 
-16.46 7.758 11.119 
-8.66 10.206 8.452 
-14.338 8.426 11.059 
-6.359 10.925 3.823 
-7.403 10.553 12.42 
-9.997 9.662 5.857 
-14.284 8.389 6.448 
-12.583 8.96 12.19 
-10.156 9.441 8.748 
-12.269 9.07 14.578 
-7.157 10.622 7.925 
-9.059 10.101 3.713 
-6.04 10.996 10.079 
-13.563 8.627 10.354 
-16.902 7.316 5.619 
-10.921 9.418 10.977 
-11.353 9.338 8.327 
-5.357 11.231 7.256 
-10.354 9.71 3.619 
-7.967 10.449 3.004 
-6.144 11.002 3.124 
-10.858 9.543 3.327 
-9.133 8.815 2.805 
-8.703 9.974 6.526 
-9.366 9.945 7.502 
-12.953 8.918 3.93 
-8.565 10.067 5.221 
-8.975 9.992 5.711 
-11.733 9.287 3.538 
-7.967 10.254 5.159 
-9.452 9.945 8.131 
-8.617 10.183 12.047 
-14.272 8.514 8.053 
-14.224 8.475 4.383 
-4.795 11.034 4.704 
-16.31 7.892 13.706 
-9.606 9.768 4.925 
-11.766 8.769 7.067 
-13.93 8.312 4.367 
-10.758 9.522 7.806 
-9.17 9.411 2.692 
-16.902 7.665 15.885 
-9.077 10.098 11.069 
-5.506 11.158 3.178 
-11.522 8.771 4.58 
-10.435 9.628 15.259 
-7.375 10.595 6.87 
-10.688 9.537 7.721 
-9.966 9.765 7.523 
-5.398 11.167 15.735 
-11.666 9.089 11.059 
-14.146 8.483 7.344 
-13.57 8.688 15.675 
-5.273 11.22 4.434 
-13.039 8.891 7.111 
-15.3 8.193 12.322 
-6.704 9.598 2.689 
-8.257 10.153 11.02 
-10.164 9.701 8.033 
-7.934 9.35 2.689 
-10.757 9.529 15.657 
-9.936 9.321 2.693 
-12.445 8.746 11.051 
-5.458 11.211 9.321 
-12.996 8.742 11.055 
-9.433 9.989 3.709 
-13.299 8.762 2.967 
-13.942 8.565 3.414 
-8.944 9.642 9.382 
-12.246 9.141 14.946 
-15.013 7.892 9.037 
-8.168 10.319 15.679 
-7.624 10.536 8.146 
-15.889 8.029 3.114 
-8.753 9.98 10.732 
-8.39 10.2 9.07 
-14.363 8.146 5.943 
-13.473 8.689 11.731 
-10.598 9.568 6.598 
-14.057 8.529 3.339 
-8.077 10.343 8.871 
-6.781 10.76 9.936 
-9.925 9.803 4.426 
-16.825 7.133 4.367 
-7.467 10.529 9.127 
-6 10.913 7.098 
-16.801 7.664 8.341 
-11.071 9.429 5.912 
-11.513 8.734 6.921 
-15.036 7.997 9.443 
-7.893 10.233 6.756 
-13.469 8.756 12.843 
-14.378 8.478 10.842 
-14.573 8.358 14.135 
-13.723 8.695 2.906 
-9.303 9.968 8.336 
-12.87 8.927 3.31 
-7.375 10.56 10.234 
-8.776 10.16 7.117 
-11.386 9.325 4.117 
-14.954 8.318 3.014 
-16.59 7.818 2.833 
-4.983 11.347 7.245 
-13.702 8.629 13.137 
-15.984 7.944 14.053 
-16.737 7.689 7.53 
-12.966 8.841 7.404 
-11.581 9.265 4.011 
-13.372 8.637 7.079 
-8.652 10.082 5.117 
-9.674 9.814 10.445 
-10.541 9.411 10.154 
-10.145 9.725 3.302 
-8.263 10.279 4.244 
-14.628 8.404 10.049 
-8.448 10.109 2.899 
-16.179 7.934 8.059 
-8.539 10.008 10.917 
-14.995 8.228 7.857 
-9.409 9.895 10.785 
-16.383 7.868 7.996 
-12.428 8.216 2.788 
-6.543 10.848 7.53 
-10.55 9.648 6.642 
-14.097 8.463 3.64 
-10.369 8.872 2.695 
-11.945 9.166 15.694 
-12.254 9.134 13.77 
-16.681 7.716 2.713 
-14.093 8.243 5.23 
-6.768 10.749 12.457 
-16.153 7.785 11.262 
-15.077 8.116 9.757 
-7.486 10.547 8.729 
-16.914 7.393 6.891 
-12.58 8.974 14.169 
-11.768 9.283 13.284 
-4.868 11.326 4.525 
-7.554 10.512 16.204 
-13.163 8.795 12.061 
-10.908 9.473 5.075 
-9.052 9.579 11.02 
-8.946 9.954 6.852 
-9.673 9.911 7.73 
-16.647 7.802 3.224 
-14.079 8.503 9.312 
-12.515 8.532 11.28 
-12.238 9.079 11.433 
-8.301 10.275 7.734 
-9.123 10.083 4.12 
-15.438 8.112 14.642 
-9.45 9.791 6.207 
-4.837 10.078 2.693 
-13.295 8.745 7.912 
-7.382 9.079 2.688 
-10.559 9.586 12.933 
-14.065 8.509 11.236 
-9.021 9.657 15.469 
-16.746 7.712 14.55 
-10.964 9.185 9.717 
-14.311 8.359 2.691 
-7.95 10.39 16.181 
-6.957 10.711 10.041 
-9.461 9.445 10.161 
-6.66 10.778 12.213 
-12.548 8.985 15.558 
-11.072 9.45 6.726 
-15.696 7.818 6.878 
-5.425 11.221 10.189 
-13.441 8.731 3.618 
-4.775 11.028 5.583 
-7.039 10.715 7.866 
-4.889 10.686 15.477 
-4.847 11.235 14.189 
-10.423 9.187 9.801 
-8.284 9.388 2.69 
-11.152 9.484 2.904 
-5.108 11.309 7.882 
-8.337 10.105 6.212 
-8.443 10.306 3.332 
-11.248 9.431 11.224 
-10.443 9.508 2.693 
-13.275 8.83 2.732 
-11.053 9.439 8.361 
-5.462 11.164 10.024 
-15.121 8.209 15.662 
-4.815 11.126 14.097 
-15.543 8.074 12.845 
-9.395 9.231 13.192 
-7.319 10.632 7.207 
-15.563 8.066 13.865 
-8.358 10.256 12.466 
-11.592 9.013 6.03 
-15.327 8.19 3.91 
-13.948 8.549 9.848 
-13.937 8.615 9.855 
-16.054 7.969 8.027 
-7.787 10.495 9.788 
-9.639 9.033 2.693 
-7.867 10.323 5.62 
-13.146 8.801 7.834 
-13.662 8.432 5.049 
-9.522 9.8 5.83 
-8.564 10.223 4.143 
-14.36 7.191 2.901 
-11.045 8.767 2.794 
-9.917 9.703 6.058 
-13.863 8.636 12.65 
-7.651 10.476 11.46 
-8.378 10.253 11.848 
-14.353 8.151 6.329 
-7.651 10.503 9.445 
-8.673 10.22 4.03 
-12.902 8.864 8.084 
-15.057 8.05 8.701 
-9.871 8.316 2.693 
-4.862 11.333 4.358 
-11.25 9.435 6.142 
-13.274 8.806 4.29 
-6.089 10.956 11.443 
-11.153 9.433 4.212 
-10.045 9.818 2.994 
-16.247 7.912 16.293 
-6.318 9.322 2.689 
-6.374 10.862 4.129 
-7.281 10.584 7.922 
-9.26 9.976 4.025 
-5.737 11.058 9.91 
-6.066 10.964 9.631 
-12.567 9.024 3.423 
-5.266 11.231 11.343 
-4.958 11.33 8.725 
-4.861 11.297 5.335 
-12.002 9.146 16.236 
-7.998 10.377 11.463 
-16.473 7.84 2.518 
-12.262 9.064 3.527 
-10.302 9.619 9.448 
-9.245 10.071 6.895 
-8.94 10.082 16.131 
-13.081 8.82 13.324 
-15.082 8.265 11.97 
-10.937 8.607 2.694 
-10.079 9.741 2.914 
-7.172 10.451 6.974 
-15.954 7.996 12.316 
-11.174 9.405 15.759 
-8.573 10.2 11.657 
-16.037 7.922 13.132 
-12.768 7.419 2.698 
-7.13 10.694 9.323 
-13.888 8.572 14.11 
-10.276 9.711 13.309 
-8.566 10.104 4.924 
-6.708 10.783 3.376 
-15.85 7.779 6.877 
-16.59 7.806 11.185 
-9.246 9.48 2.692 
-9.325 9.982 4.402 
-8.666 10.097 5.066 
-12.545 8.986 14.152 
-6.135 10.991 3.474 
-16.585 7.736 7.527 
-10.025 9.751 16.183 
-7.539 10.226 4.611 
-11.586 9.337 5.039 
-8.348 10.161 4.922 
-15.088 8.143 10.636 
-11.651 9.245 8.349 
-12.076 9.181 12.013 
-11.805 9.214 14.795 
-10.187 9.215 10.733 
-6.864 10.717 16.022 
-16.146 7.891 13.646 
-9.769 9.601 2.693 
-5.641 11.085 8.733 
-11.378 9.348 3.114 
-11.086 8.878 2.695 
-8.8 10.136 11.329 
-11.086 9.125 2.791 
-9.492 9.425 2.693 
-11.547 9.309 4.827 
-14.215 8.472 14.829 
-7.96 10.385 15.989 
-10.183 9.596 12.703 
-14.851 8.27 11.665 
-14.271 8.51 10.429 
-12.883 8.871 12.006 
-13.85 8.596 15.566 
-8.272 10.315 8.738 
-11.865 8.462 2.79 
-7.525 10.136 2.688 
-8.453 10.034 7.103 
-9.834 9.808 12.237 
-14.954 8.235 7.913 
-6.277 10.902 11.77 
-4.875 11.342 5.959 
-6.438 10.902 8.347 
-11.936 8.068 2.695 
-10.152 9.733 3.632 
-16.178 7.862 11.937 
-8.033 9.856 5.758 
-6.173 10.988 9.171 
-10.466 9.571 11.146 
-16.194 7.662 7.071 
-5.771 11.105 6.878 
-7.675 10.532 3.408 
-8.358 10.267 15.837 
-9.966 9.636 5.198 
-8.771 10.127 4.207 
-10.95 9.526 5.943 
-14.868 8.261 10.766 
-9.333 9.84 2.691 
-10.533 9.432 10.941 
-6.693 10.424 6.903 
-9.988 9.767 6.876 
-13.549 8.685 15.356 
-6.793 10.466 5.225 
-15.77 8.06 7.33 
-16.19 7.862 13.12 
-6.701 10.56 6.869 
-16.527 7.822 16.182 
-5.667 11.085 10.833 
-9.036 9.992 5.055 
-16.301 7.846 13.728 
-6.048 11.025 4.297 
-8.729 10.129 2.8 
-13.677 8.363 6.432 
-10.87 9.552 5.747 
-14.162 8.279 6.628 
-5.793 11.055 16.238 
-5.551 11.151 8.918 
-10.199 9.725 5.317 
-9.579 9.912 4.026 
-11.944 9.171 15.293 
-9.552 9.715 10.156 
-5.436 11.154 12.164 
-9.765 9.836 3.207 
-6.444 10.842 7.858 
-8.913 9.168 2.691 
-11.484 9.317 3.308 
-9.834 9.649 2.692 
-15.885 7.977 15.162 
-15.765 8.07 3.405 
-10.578 9.574 11.615 
-9.75 9.665 10.866 
-10.919 9.206 8.844 
-8 10.374 12.217 
-11.374 9.355 6.323 
-14.867 8.285 15.977 
-8.658 10.169 11.526 
-12.373 9.034 14.755 
-13.755 8.674 14.576 
-10.498 9.565 11.035 
-11.322 9.41 8.016 
-10.641 9.619 4.816 
-11.38 8.643 2.695 
-10.497 9.182 9.386 
-5.082 11.317 7.324 
-11.641 9.246 7.345 
-14.673 8.328 13.879 
-10.976 9.554 16.112 
-16.583 7.809 8.265 
-10.759 9.518 4.337 
-4.863 11.278 14.049 
-10.217 9.625 6.341 
-15.198 8.164 8.224 
-10.448 9.563 9.941 
-9.224 9.999 11.546 
-14.878 8.26 13.374 
-6.058 9.521 2.69 
-14.164 8.276 5.257 
-7.522 10.279 6.34 
-13.358 8.748 7.101 
-5.256 11.237 3.892 
-15.392 8.127 14.757 
-12.049 9.142 15.264 
-16.833 7.732 13.223 
-12.767 8.971 7.03 
-7.974 10.07 2.688 
-14.951 7.72 10.291 
-5.565 11.146 3.635 
-10.727 9.591 6.614 
-16.062 7.907 11.931 
-10.037 9.745 12.458 
-15.779 8.002 13.632 
-7.767 10.432 7.512 
-7.084 10.635 7.055 
-5.764 11.104 6.994 
-6.865 10.443 5.947 
-12.74 8.819 6.846 
-5.856 11.025 15.784 
-10.157 9.708 7.906 
-9.871 9.826 4.03 
-10.94 9.471 13.97 
-6.674 10.324 15.465 
-5.897 10.967 6.922 
-5.506 11.14 16.162 
-5.492 11.032 15.478 
-4.865 11.322 6.733 
-8.166 10.16 5.97 
-11.367 9.339 5.851 
-13.554 8.685 16.054 
-8.864 9.393 13.205 
-9.201 9.547 11.165 
-4.782 11.024 14.72 
-14.077 8.509 9.833 
-13.273 8.81 16.103 
-7.451 10.318 4.938 
-8.148 10.4 4.185 
-11.444 9.395 2.889 
-15.362 8.139 15.902 
-13.26 8.765 3.525 
-9.361 9.966 3.416 
-6.48 9.556 2.689 
-5.175 11.232 8.51 
-10.64 9.618 6.749 
-13.147 8.797 12.813 
-13.048 8.887 4.107 
-10.559 9.645 6.412 
-10.78 9.367 11.161 
-8.177 9.929 9.343 
-6.772 10.745 11.623 
-5.562 11.138 9.761 
-7.675 10.359 6.045 
-7.767 10.44 15.679 
-15.736 8.07 8.087 
-11.955 9.171 3.075 
-6.745 10.812 9.435 
-4.856 11.291 4.578 
-10.482 8.649 2.9 
-14.844 8.339 7.598 
-6.685 10.767 8.64 
-9.083 9.945 6.619 
-13.463 8.709 15.627 
-11.939 9.221 7.928 
-8.434 10.291 6.973 
-11.363 9.404 5.9 
-8.969 10.127 3.409 
-11.394 8.697 11.285 
-14.852 8.279 7.512 
-12.763 8.928 3.286 
-8.935 10.082 16.018 
-15.775 8.014 15.513 
-10.78 9.52 14.552 
-10.393 9.375 11.243 
-7.679 10.522 4.008 
-10.525 9.659 12.71 
-8.969 9.695 6.688 
-13.835 8.582 11.34 
-7.61 10.486 12.583 
-7.524 10.341 5.483 
-4.877 11.334 13.133 
-8.063 10.349 9.957 
-13.465 8.499 6.878 
-15.936 8.013 7.006 
-7.49 9.208 2.806 
-5.508 11.196 3.396 
-10.311 8.313 2.693 
-11.04 9.302 2.789 
-8.671 10.158 8.456 
-14.554 8.427 8.731 
-12.999 8.864 4.39 
-6.74 10.522 6.807 
-10.958 9.463 8.146 
-10.972 9.519 7.926 
-9.268 9.867 6.64 
-10.297 9.666 7.032 
-12.189 8.966 7.057 
-16.777 7.748 13.64 
-7.656 10.468 8.311 
-11.04 9.497 6.454 
-8.188 9.768 10.57 
-15.054 8.029 10.56 
-13.65 8.374 6.902 
-13.151 8.821 8.596 
-9.351 9.956 11.355 
-16.849 7.725 11.211 
-7.142 10.635 12.103 
-11.772 9.22 14.34 
-9.06 10.1 4.139 
-15.156 8.235 3.934 
-14 8.532 8.457 
-8.05 9.866 6.504 
-8.768 10.148 8.425 
-7.867 10.21 6.61 
-13.176 8.799 15.67 
-5.421 11.215 8.209 
-8.821 10.12 12.538 
-8.372 10.244 3.657 
-9.964 9.762 8.442 
-9.116 9.867 7.039 
-9.772 9.841 3.14 
-10.334 9.652 14.043 
-11.672 9.265 5.929 
-9.077 9.993 5.114 
-5.651 11.113 10.92 
-14.336 8.449 14.459 
-11.608 9.273 14.216 
-9.659 9.743 4.925 
-5.09 9.837 2.692 
-9.753 9.902 2.694 
-12.055 9.185 7.513 
-9.404 9.999 12.348 
-10.646 9.55 5.088 
-8.849 10.123 3.301 
-13.947 8.534 3.82 
-13.976 8.604 10.037 
-9.331 9.773 7.037 
-13.562 8.625 9.953 
-15.769 8.013 14.358 
-11.144 9.432 4.613 
-10.755 9.529 8.362 
-7.561 10.219 5.911 
-12.869 8.873 3.658 
-7.453 10.542 12.352 
-10.143 9.736 4.233 
-14.282 8.168 5.053 
-10.35 9.711 6.342 
-5.095 10.8 15.477 
-6.458 10.835 7.711 
-8.154 10.264 5.759 
-15.486 8.099 14.348 
-15.679 8.017 7.748 
-9.73 9.894 7.945 
-12.236 9.08 14.556 
-5.859 11.028 10.353 
-16.259 7.846 12.567 
-8.042 10.359 9.25 
-10.084 9.13 4.648 
-15.414 8.093 7.623 
-10.773 9.511 5.412 
-14.04 8.586 7.227 
-4.872 11.3 14.741 
-10.469 9.116 10.3 
-4.992 11.284 8.562 
-9.644 9.804 6.06 
-13.846 7.924 2.902 
-5.701 11.075 9.734 
-16.904 7.662 14.269 
-9.174 9.904 4.922 
-9.478 9.821 5.121 
-16.491 7.767 7.831 
-11.455 9.307 12.048 
-12.174 9.151 11.213 
-13.718 8.617 13.417 
-5.715 11.095 11.429 
-16.827 7.685 15.794 
-9.463 9.927 11.714 
-4.708 10.803 4.662 
-4.871 11.328 5.444 
-4.955 11.323 11.449 
-14.45 8.484 4.198 
-7.058 10.657 11.959 
-7.083 10.65 10.336 
-9.73 9.831 8.323 
-9.665 9.748 5.123 
-10.183 9.506 6.825 
-11.198 8.621 2.695 
-13.748 8.606 7.934 
-8.053 10.354 9.638 
-15.435 8.071 6.874 
-8.454 10.171 5.05 
-15.529 8.075 12.475 
-10.885 9.257 10.345 
-4.97 11.304 16.279 
-11.387 9.336 13.817 
-8.687 10.165 12.248 
-7.077 10.707 8.631 
-16.89 7.643 7.987 
-12.271 9.002 6.851 
-14.58 8.354 10.856 
-12.063 9.138 3.144 
-4.747 10.869 15.483 
-8.253 10.144 9.333 
-7.465 10.155 5.742 
-14.28 8.51 8.266 
-4.882 11.325 15.844 
-12.18 9.151 4.114 
-10.054 9.603 6.327 
-8.065 10.347 15.829 
-16.739 7.707 12.135 
-14.77 8.309 14.35 
-11.93 8.59 11.277 
-6.552 10.818 12.244 
-4.691 10.735 14.032 
-7.714 10.395 5.046 
-7.711 10.46 15.863 
-15.441 8.124 8.611 
-6.558 10.751 6.865 
-15.965 7.938 13.036 
-8.55 10.096 5.684 
-16.18 7.929 4.127 
-10.762 9.546 4.236 
-6.995 10.675 9.53 
-13.975 8.54 10.174 
-5.773 11.041 10.816 
-10.28 9.663 4.107 
-10.269 9.732 3.891 
-5.942 11.02 10.455 
-14.354 8.44 15.165 
-16.254 7.836 7.329 
-7.271 10.62 9.842 
-10.844 9.027 9.492 
-8.745 9.938 10.524 
-8.449 10.223 8.438 
-8.403 10.007 6.657 
-13.922 8.619 11.614 
-9.747 9.539 10.537 
-8.544 10.237 4.23 
-14.557 8.39 3.827 
-16.247 7.909 15.217 
-10.396 9.594 11.275 
-13.959 8.542 8.14 
-16.461 7.841 12.508 
-10.151 9.633 5.427 
-16.482 7.79 15.053 
-16.804 7.769 8.416 
-8.84 10.186 3.142 
-10.899 9.403 8.848 
-9.302 9.49 5.821 
-7.382 9.441 2.902 
-8.888 9.919 6.414 
-7.521 10.049 6.894 
-16.264 7.835 7.703 
-6.665 10.832 3.619 
-14.257 8.46 14.76 
-15.666 8.035 3.513 
-4.71 10.784 15.367 
-15.064 8.221 3.551 
-11.647 9.312 11.676 
-6.444 10.898 7.522 
-13.455 8.699 11.533 
-10.136 9.462 12.739 
-10.638 9.638 2.804 
-14.893 8.322 12.02 
-4.802 11.088 15.109 
-12.108 9.115 14.068 
-10.839 9.235 9.726 
-6.56 10.832 8.231 
-11.229 9.327 11.354 
-5.559 10.4 13.207 
-11.351 9.402 7.845 
-14.473 8.408 3.841 
-14.957 8.257 15.764 
-5.617 10.612 2.69 
-9.448 8.655 2.692 
-8.094 10.342 8.61 
-14.017 8.589 11.358 
-6.74 10.532 6.028 
-6.444 10.902 8.56 
-10.063 9.229 4.917 
-6.947 10.688 11.36 
-14.987 8.245 3.103 
-7.519 10.518 11.655 
-11.175 9.404 13.705 
-13.737 8.676 6.991 
-4.878 10.452 2.691 
-9.769 9.887 6.872 
-16.671 7.741 11.07 
-7.08 10.666 4.391 
-8.293 10.281 8.319 
-8.444 9.87 6.091 
-11.043 9.449 3.034 
-4.877 11.35 6.129 
-9.28 10.05 2.729 
-9.651 9.865 16.082 
-9.047 10.052 15.747 
-9.492 9.736 6.815 
-11.639 9.338 6.544 
-16.847 7.13 5.231 
-9.626 9.811 6.955 
-14.273 8.515 6.955 
-14.03 8.589 7.697 
-6.827 10.505 5.118 
-8.282 9.921 5.899 
-9.164 10.02 12.281 
-12.568 9.032 11.309 
-15.059 8.212 11.35 
-16.58 7.817 7.276 
-5.766 11.07 3.51 
-14.27 8.248 4.81 
-12.035 8.779 2.693 
-10.67 9.546 6.56 
-5.959 11.047 3.715 
-10.165 9.73 4.094 
-5.157 11.243 11.66 
-9.792 9.651 5.751 
-10.518 9.451 9.659 
-8.409 10.092 11.244 
-14.722 8.304 12.867 
-13.845 8.583 14.036 
-14.057 8.542 14.63 
-9.872 9.679 6.969 
-14.334 8.307 6.043 
-7.924 10.45 9.764 
-10.153 9.724 3.529 
-7.964 10.439 3.411 
-4.856 11.261 15.344 
-15.895 7.945 11.675 
-11.376 9.337 7.535 
-12.441 9.007 11.622 
-11.046 9.497 5.533 
-8.473 9.307 2.689 
-15.272 8.195 16.047 
-13.578 8.655 8.012 
-9.35 10.03 3.004 
-15.769 7.981 8.539 
-4.692 10.726 15.322 
-4.88 11.348 13.47 
-8.139 10.212 5.12 
-11.364 9.404 5.755 
-13.436 8.708 14.672 
-13.139 8.857 8.318 
-10.751 9.58 8.365 
-7.769 10.353 6.542 
-15.702 8.039 15.356 
-12.163 9.097 11.938 
-6.363 10.895 10.935 
-6.896 10.378 5.12 
-4.951 11.331 10.454 
-15.069 8.221 14.954 
-12.342 9.034 8.334 
-13.672 8.635 13.73 
-9.593 9.731 11.017 
-14.067 8.507 7.641 
-16.013 7.932 14.23 
-13.097 8.819 15.48 
-10.436 9.478 10.734 
-7.144 10.636 8.63 
-12.423 9.02 15.667 
-9.673 9.382 9.781 
-9.059 9.55 10.296 
-6.973 10.675 4.294 
-6.994 10.451 7.085 
-8.78 9.649 10.954 
-8.71 9.658 6.567 
-11.405 9.385 11.864 
-5.949 11.05 2.922 
-12.025 9.2 11.444 
-10.433 9.129 10.445 
-4.783 11.037 13.696 
-12.639 8.66 2.779 
-10.389 9.635 15.139 
-11.62 9.086 4.653 
-9.78 9.508 15.469 
-16.297 7.907 3.211 
-15.032 8.242 16.228 
-10.113 9.274 4.559 
-13.886 8.361 6.833 
-13.664 8.63 8.239 
-9.967 9.762 8.255 
-13.861 8.641 7.005 
-8.269 10.128 5.93 
-16.827 7.733 11.573 
-10.823 9.505 12.366 
-15.901 7.975 15.868 
-7.162 10.695 12.597 
-15.792 7.961 6.895 
-6.227 10.918 11.35 
-5.156 11.235 8.725 
-5.168 11.292 7.526 
-8.714 10.024 6 
-10.34 9.715 3.914 
-15.87 8.028 8.265 
-10.435 8.127 2.799 
-8.32 10.337 11.438 
-4.784 11.036 6.545 
-14.23 8.026 4.528 
