ply
format ascii 1.0
comment VCGLIB generated
element vertex 2326
property float x
property float y
property float z
element face 0
property list uchar int vertex_indices
end_header
-1.83 5.953 15.972 
-15.368 7.673 2.905 
-1.448 4.64 8.464 
-11.234 9.438 4.52 
-0.864 2.826 8.189 
0.242 -0.901 5.672 
0.582 -1.971 0.705 
-1.802 5.758 13.74 
-2.693 8.689 11.869 
-4.742 10.956 6.641 
-6.988 9.37 2.901 
-2.024 6.529 8.166 
-16.887 7.247 5.831 
-10.26 9.308 10.839 
-11.572 9.279 13.355 
0.766 -2.629 5.818 
-0.47 0.565 9.976 
-3.418 11.151 4.042 
-4.003 11.651 7.576 
-8.336 10.282 2.923 
-11.657 5.761 2.689 
-4.629 11.428 11.44 
-13.468 8.695 12.999 
-4.494 10.775 2.893 
-2.052 6.563 14.249 
-1.029 0.716 13.18 
-10.848 9.557 4.303 
-0.522 1.277 11.2 
-1.383 4.363 15.063 
0.574 -1.958 1.326 
-0.83 2.622 7.262 
-2.814 9.167 6.442 
-8.122 10.329 15.561 
-0.794 2.526 5.149 
-4.882 11.354 13.35 
-6.235 9.745 2.689 
-7.639 10.478 7.55 
-4.267 11.51 7.661 
0.5 -1.765 9.952 
-15.761 7.888 6.87 
-2.146 5.934 6.898 
-2.678 8.6 14.541 
-7.514 10.517 12.457 
-15.834 8.04 7.63 
-2.311 6.652 11.081 
-15.101 8.228 8.664 
-2.357 7.65 7.749 
0.012 -0.165 10.959 
-3.27 10.657 8.276 
-0.628 2.042 16.024 
-2.07 6.748 5.631 
-11.843 9.252 3.944 
-0.13 -0.119 2.612 
-11.261 9.391 6.744 
-1.598 5.213 6.95 
-0.452 0.457 12.22 
-12.019 9.147 14.209 
-3.948 10.39 2.696 
-0.6 1.427 15.111 
-16.442 7.77 8.457 
0.57 -2.005 12.192 
-3.387 10.868 14.077 
-3.828 11.65 14.029 
-8.669 7.392 2.69 
-13.581 8.581 2.691 
-9.519 9.217 2.692 
-2.204 7.069 14.07 
-14.431 8.248 6.858 
-9.392 9.909 3.631 
-1.545 4.139 6.651 
-7.232 10.596 3.819 
-2.735 8.865 11.971 
-3.49 11.377 4.728 
0.24 -0.946 15.437 
-0.649 2.05 5.236 
-1.83 5.827 16.085 
-5.28 11.207 10.04 
-8.191 10.313 11.374 
0.103 -0.494 13.397 
-13.177 8.856 15.463 
-14.664 8.343 3.331 
-0.403 1.208 11.377 
-2.693 8.776 4.245 
-9.559 9.724 10.439 
-11.249 9.379 15.812 
-10.659 9.582 11.278 
-8.309 9.944 15.467 
-2.412 7.832 13.973 
-8.35 10.189 6.259 
-0.451 1.423 4.54 
-11.666 9.252 11.381 
-0.686 1.871 11.202 
-3.722 8.823 2.697 
0.747 -2.542 7.319 
-6.916 10.461 15.465 
-8.319 10.266 4.043 
-2.373 7.746 6.866 
-2.941 8.682 11.078 
-14.468 8.455 3.753 
0.484 -1.718 7.235 
-1.277 4.057 10.439 
-4.351 11.486 10.951 
0.137 -0.442 11.221 
-7.934 10.444 7.745 
-12.218 9.133 4.298 
-10.149 9.774 3.648 
-4.824 11.157 13.873 
-8.236 10.247 6.255 
-3.082 9.986 10.065 
-1.402 4.538 3.751 
0.196 -0.843 5.027 
-2.595 8.469 3.121 
-6.095 10.955 11.662 
-3.959 8.091 2.697 
-0.418 1.26 8.129 
-7.15 10.653 7.952 
-3.73 11.687 4.549 
-13.799 8.655 11.788 
-6.839 10.745 10.058 
-6.581 10.805 12.262 
-3.308 10.78 6.232 
-10.917 9.356 11.204 
-11.962 9.151 8.531 
-10.054 9.772 3.747 
-10.424 9.631 13.401 
0.531 -1.838 4.31 
-15.669 8.087 8.28 
-15.372 8.105 7.955 
-6.914 10.729 10.044 
-0.113 -0.126 14.557 
-0.015 -0.055 4.83 
-3.546 11.449 12.469 
-14.051 8.58 7.943 
-0.687 2.142 7.757 
-5.932 11.007 15.802 
-11.867 9.186 12.199 
-4.619 11.452 4.555 
-0.579 1.781 7.105 
-1.97 6.344 12.285 
-7.439 10.563 9.859 
-10.729 9.526 8.552 
-12.969 6.037 2.692 
-1.429 4.627 3.951 
-11.414 9.112 2.696 
0.326 -1.216 10.349 
-2.535 8.153 13.074 
-1.429 4.466 0.378 
-4.28 11.51 7.223 
-5.739 8.348 2.688 
-8.961 9.576 9.877 
0.482 -1.582 12.153 
-6.888 10.379 7.016 
-10.033 9.661 5.855 
-10.477 9.605 6.347 
-2.597 8.466 4.636 
-7.726 8.188 2.688 
-7.453 10.535 10.345 
-13.426 8.78 15.588 
0.339 -1.174 2.637 
-10.055 9.766 4.158 
-3.179 10.204 3.437 
-11.754 9.207 4.302 
-10.135 9.715 15.615 
-13.947 8.546 7.733 
-1.865 5.957 14.074 
-11.003 9.512 6.045 
-4.922 11.377 2.737 
-1.733 5.649 3.528 
-15.344 8.134 13.667 
-6.024 10.673 2.689 
-3.104 10.062 11.963 
-2.359 7.619 11.37 
-10.941 9.474 14.056 
-6.904 10.465 6.561 
-3.598 11.76 6.239 
-14.328 8.157 6.447 
-14.752 8.376 2.818 
-10.941 5.575 2.912 
-10.483 9.562 9.444 
-9.028 6.925 2.69 
-5.219 11.248 10.442 
-5.648 11.087 9.136 
-5.219 11.277 8.171 
-3.363 10.951 9.962 
-14.378 8.481 3.856 
-3.336 10.867 5.336 
-9.033 8.346 2.692 
-9.055 10.055 15.637 
-8.702 10.217 4.179 
-0.647 0.141 15.284 
0.455 -1.584 5.023 
-9.405 9.474 10.591 
-14.369 8.421 13.358 
-2.794 9.087 5.14 
-12.267 9.062 7.16 
-3.929 11.642 10.77 
-13.468 8.716 15.978 
-9.281 9.809 6.673 
-2.607 8.48 5.349 
-15.503 8.093 15.56 
-1.676 5.461 0.023 
-1.619 5.168 11.567 
-8.848 10.056 6.542 
-2.389 7.761 7.653 
-2.178 7.103 1.541 
-5.519 10.858 2.69 
-13.235 8.761 8.437 
-0.435 1.333 6.546 
-16.292 7.844 12.77 
-1.914 5.325 8.667 
-9.349 10.018 11.59 
-2.809 9.061 13.873 
-1.873 6.114 2.246 
-2.046 6.644 7.856 
-1.637 5.322 14.304 
-1.117 2.533 6.531 
-7.943 10.44 8.836 
-14.474 8.379 8.554 
-9.303 10.026 7.685 
-7.355 10.632 10.863 
-2.421 7.851 14.273 
0.192 -0.747 5.936 
-0.299 0.911 3.445 
-16.727 7.716 15.568 
-12.745 8.982 3.835 
-0.53 0.551 13.354 
-0.851 2.644 12.358 
-11.554 8.09 2.794 
-5.611 11.127 11.161 
-15.638 7.74 7.073 
-3.119 8.919 11.111 
-0.303 -0.178 13.202 
-13.817 8.547 2.694 
-1.72 5.576 2.523 
-13.144 8.605 6.87 
-1.713 5.462 12.658 
-10.137 9.48 10.381 
-6.71 10.146 15.468 
-2.949 9.629 4.142 
-11.709 9.23 11.573 
-4.659 11.399 14.683 
-15.166 5.351 2.795 
-12.575 9.029 8.133 
0.451 -1.639 10.441 
-0.954 3.023 8.154 
-7.841 10.252 6.996 
-0.97 3.124 2.833 
-0.452 1.343 12.15 
-2.48 7.99 11.548 
-0.239 0.698 6.535 
0.377 -1.361 7.651 
-3.215 10.461 7.656 
-4.819 11.158 14.475 
-5.443 11.216 6.882 
-8.168 9.742 2.688 
-12.743 8.984 16.375 
-9.237 6.051 2.693 
-10.642 8.172 2.694 
-11.958 9.157 12.393 
-3.835 11.663 12.978 
-10.443 9.648 5.848 
-1.863 6.064 6.894 
-14.192 8.538 12.707 
-13.863 8.636 12.65 
-0.765 2.422 4.932 
-0.984 3.15 2.969 
-13.288 8.76 13.48 
-0.71 2.225 7.15 
-2.039 6.542 14.697 
0.229 -0.874 7.58 
-2.346 5.961 11.11 
-0.368 1.099 8.086 
-13.141 7.718 2.696 
-5.337 11.179 4.014 
-2.741 8.857 15.699 
-3.938 9.625 2.697 
-0.761 2.422 5.235 
-8.917 9.924 10.873 
-13.475 8.695 14.751 
-9.058 10.06 3.325 
-8.38 6.415 2.914 
-2.387 7.753 1.302 
-11.957 9.147 7.519 
0.654 -2.242 6.531 
-14.441 8.393 4.046 
-1.571 4.237 5.129 
-4.986 8.872 2.9 
-4.719 11.366 9.542 
-1.855 6.054 3.813 
-2.231 7.169 14.082 
-9.63 9.434 5.612 
-12.363 9.091 7.934 
-13.275 8.757 15.565 
-1.496 4.85 1.627 
0.398 -1.441 10.925 
-2.692 8.752 6.739 
-0.133 0.346 6.73 
-12.704 8.603 11.113 
-16.406 7.807 2.607 
-1.167 3.787 16.021 
-11.541 9.344 3.943 
-7.514 10.426 6.577 
-5.022 11.29 15.898 
-11.969 9.221 13.689 
-6.023 10.976 11.379 
-4.903 11.346 8.332 
-10.611 9.169 2.794 
0.194 -0.826 4.706 
-1.44 4.669 3.024 
-11.599 9.028 4.61 
-4.632 11.4 5.127 
-5.046 11.3 3.206 
-16.071 7.964 7.655 
-1.036 3.318 4.152 
-10.825 9.565 12.261 
-3.14 10.257 3.329 
-3.395 10.982 12.187 
-13.951 8.611 7.29 
-12.676 8.937 12.15 
-2.978 9.591 14.499 
-9.134 9.856 6.891 
-5.654 11.084 8.664 
-8.48 9.767 11.096 
-15.965 7.999 7.645 
-1.12 3.559 8.143 
-10.911 6.14 2.689 
-11.914 9.078 7.072 
-1.712 5.468 14.978 
-1.834 5.862 12.773 
-1.15 3.855 0.501 
-10.74 9.557 6.938 
-9.618 9.414 11.093 
-3.208 10.463 6.852 
-12.922 7.373 2.901 
-0.789 2.668 0.018 
-7.246 10.604 10.58 
-14.571 8.355 11.357 
-1.194 3.869 2.544 
-3.236 10.45 14.062 
-1.874 5.988 13.121 
-8.247 10.366 10.691 
0.218 -0.862 13.505 
-10.712 9.228 9.044 
-3.305 10.771 6.027 
-4.718 11.244 2.887 
0.201 -0.835 16.08 
-8.237 10.322 8.148 
-2.052 6.726 11.081 
-8.357 10.315 7.579 
-10.443 9.508 2.693 
0.056 -0.348 14.868 
-1.585 5.147 1.351 
-2.226 7.231 7.648 
-1.821 5.945 1.026 
-0.498 0.835 11.086 
-8.567 10.25 7.55 
0.091 -0.45 11.922 
-8.518 10.231 4.416 
-15.955 7.931 7.326 
-1.236 3.94 9.353 
-14.06 8.529 15.06 
-9.349 9.824 11.303 
-1.171 3.85 14.218 
-14.587 8.418 8.048 
-0.702 0.357 15.286 
-1.564 4.23 4.447 
-0.466 1.523 15.818 
-0.712 2.26 3.098 
-7.934 9.35 2.689 
-7.811 10.427 12.49 
-10.539 9.644 16.353 
-1.469 3.901 6.172 
-14.242 8.256 4.951 
-0.741 2.366 3.218 
-2.461 8.026 0.834 
-15.1 8.196 8.106 
0.937 -2.162 15.702 
-14.478 8.382 10.042 
-7.535 10.511 8.658 
-5.333 11.248 3.035 
-4.335 11.495 15.315 
-4.927 11.367 7.061 
-15.017 7.898 9.277 
-8.538 10.154 6.538 
-0.561 1.757 5.129 
-6.532 10.84 3.339 
-14.757 8.366 3.855 
-7.318 10.353 5.425 
-3.307 10.683 12.557 
-4.737 11.365 9.331 
-15.564 8.065 13.967 
-2.079 6.657 15.364 
-5.065 11.305 15.492 
-2.722 8.861 5.422 
0.618 -2.183 11.274 
-1.128 3.637 4.145 
-6.898 10.374 6.643 
-13.366 8.752 3.803 
-10.64 6.861 2.692 
-8.153 10.329 16.055 
-3.075 10.055 3.029 
-6.335 10.93 3.532 
-2.276 5.267 6.905 
-2.487 8.032 -0.169 
-7.934 10.299 5.362 
-0.269 0.805 4.523 
-9.545 9.895 12.401 
-12.65 8.982 3.945 
-2.33 7.571 6.934 
-10.253 9.634 10.395 
-2.889 9.352 11.067 
-6.365 10.889 3.04 
-5.884 11.008 7.672 
-1.384 3.354 15.12 
-2.732 7.956 11.083 
0.539 -1.912 12.249 
-1.011 3.131 15.691 
-0.065 0.092 7.501 
0.033 -0.181 3.129 
-4.864 11.277 14.975 
-0.698 2.127 12.498 
-0.303 0.885 6.939 
-0.723 2.351 8.32 
-8.41 10.317 3.348 
-0.5 1.545 5.945 
-0.532 0.855 14.215 
-9.351 9.852 5.256 
-5.653 11.142 7.17 
-1.92 6.143 12.559 
-10.741 9.259 9.46 
-0.51 -0.267 2.704 
-1.205 3.875 8.637 
-14.27 8.251 5.267 
-1.091 3.527 2.76 
-8.445 10.083 6.282 
-1.321 4.154 15.161 
-1.268 4.147 -0.073 
-12.911 8.888 4.422 
-4.115 11.616 3.007 
-5.127 11.27 10.259 
-3.612 11.751 8.76 
-16.755 7.755 11.783 
-0.714 2.268 3.518 
-8.444 10.141 6.042 
-9.632 9.869 16.284 
-1.519 4.945 9.934 
-9.753 9.856 7.525 
-6.037 10.969 9.139 
-1.342 3.242 15.121 
-5.331 11.182 8.99 
-1.517 4.87 9.759 
-13.138 8.857 16.362 
0.343 -1.193 1.213 
-9.053 10.052 16.086 
-1.711 5.574 1.016 
-2.626 8.556 6.231 
-3.114 9.72 2.698 
-9.516 9.796 9.585 
-8.814 9.975 10.753 
-4.733 11.371 11.658 
-4.921 11.312 10.552 
-5.242 11.21 9.873 
-2.121 5.189 10.454 
-10.116 9.286 5.801 
-1.646 5.245 12.384 
0.184 -0.755 13.975 
0.36 -1.261 3.135 
-3.818 11.65 13.673 
-1.48 4.663 15.856 
-2.929 9.544 9.051 
-13.849 8.578 13.216 
-3.9 11.149 2.695 
-4.729 11.372 11.145 
-12.957 8.85 13.354 
-0.001 -0.086 9.84 
-2.172 7.063 6.437 
-5.345 11.18 11.05 
-11.929 9.159 7.229 
-13.117 7.171 2.696 
-12.151 9.091 7.957 
-1.834 5.958 14.683 
-1.272 4.068 8.579 
-12.259 9.076 14.268 
-4.037 11.585 6.96 
-2.443 7.933 7.557 
-3.627 11.755 5.869 
-0.632 1.949 8.362 
-1.239 3.956 7.243 
-8.226 10.353 7.048 
-14.346 8.153 6.068 
-0.946 2.959 11.543 
-2.944 9.545 10.376 
0.578 -1.987 5.862 
-5.539 11.177 3.65 
-8.694 7.703 2.691 
-8.229 10.163 6.715 
-1.273 4.143 0.228 
-13.907 8.621 10.381 
-16.229 7.928 3.395 
-1.449 3.844 5.027 
-2.48 7.977 12.749 
-16.42 7.812 15.674 
0.218 -0.812 5.413 
-2.048 6.647 15.825 
0.227 -0.85 4.469 
-1.406 4.668 4.232 
-0.627 2.031 16.199 
-7.255 10.599 7.48 
-3.908 11.629 8.06 
-8.903 9.596 6.708 
-9.329 6.259 2.689 
-1.844 5.126 5.741 
-4.613 11.412 13.607 
-9.335 8.223 2.692 
-1.768 5.828 6.92 
-13.853 8.637 8.336 
-10.967 9.466 3.623 
0.678 -2.331 4.206 
-4.338 11.49 5.933 
0.709 -2.447 5.719 
-1.46 3.862 6.031 
-2.141 6.866 13.381 
-1.582 5.075 9.026 
-10.158 9.767 11.263 
-0.133 0.332 5.65 
-7.514 9.453 2.901 
-4.609 11.466 7.267 
-7.504 9.257 2.689 
-16.35 7.833 3.218 
-0.061 0.035 12.453 
-0.957 2.578 5.546 
-2.783 8.954 14.99 
-1.445 4.557 15.564 
-6.434 10.853 12.366 
-14.635 5.417 2.7 
-8.634 10.17 4.218 
-0.677 2.135 5.542 
-14.265 8.174 4.721 
0.366 -1.269 2.657 
-8.35 7.276 2.69 
-4.413 11.529 2.737 
-10.932 8.267 2.693 
-1.334 4.344 14.862 
-14.862 8.267 11.342 
-0.965 3.057 7.243 
-1.623 5.155 14.586 
-2.353 7.643 12.077 
-2.984 9.663 9.935 
-14 7.573 2.9 
-12.657 8.995 3.412 
-4.927 10.985 15.482 
-13.536 8.671 7.456 
-0.179 0.426 12.392 
-1.508 4.76 16.059 
-1.722 5.539 11.584 
-6.159 7.13 2.69 
0.158 -0.585 1.313 
-10.414 9.214 10.288 
0.43 -1.531 6.519 
-1.947 6.407 8.416 
-9.058 10.066 8.151 
-1.867 5.222 4.948 
-3.257 10.552 11.776 
0.025 -0.218 10.101 
-15.251 8.152 12.691 
-3.476 11.318 8.004 
-1.996 5.25 11.176 
-2.832 9.163 11.939 
-4.737 11.369 10.091 
-10.918 9.356 10.134 
-13.442 6.937 2.9 
-2.479 7.989 13.041 
-9.522 9.72 9.871 
-14.278 8.244 6.158 
-3.953 11.608 9.7 
-0.002 -0.054 2.697 
-9.039 10.075 7.438 
-12.167 9.146 3.116 
-3.028 9.865 6.233 
-15.675 8.036 13.678 
0.068 -0.285 0.634 
-0.802 2.53 7.459 
-2.602 8.373 13.584 
-12.953 8.918 3.93 
-11.822 9.192 4.036 
-10.548 9.482 9.395 
-2.675 8.652 14.432 
-2.812 9.158 7.353 
-1.306 2.98 11.097 
-0.515 1.546 11.747 
0.119 -0.557 15.186 
-13.454 8.697 15.087 
-1.168 3.827 9.642 
-0.068 0.137 4.91 
-2.831 9.136 14.081 
-2.204 7.173 6.03 
-1.424 4.538 10.557 
0.718 -2.429 1.312 
-16.909 7.371 6.662 
-3.735 10.084 2.697 
-0.423 1.257 11.973 
0.123 -0.572 14.179 
-7.429 10.233 15.466 
-10.177 9.66 5.336 
-8.871 9.929 10.086 
-3.283 10.564 14.961 
0.223 -0.816 2.332 
-10.734 9.545 15.627 
-7.606 7.709 2.903 
-10.13 9.444 12.938 
-1.72 5.532 8.356 
-3.17 10.243 15.105 
-1.808 5.764 14.941 
-4.942 11.367 8.953 
-3.469 11.351 4.142 
-8.781 10.18 16.302 
-0.067 0.112 6.736 
-10.715 5.894 2.688 
-14.365 8.424 13.674 
-0.767 2.404 7.918 
-9.441 9.955 4.031 
-3.164 10.237 12.075 
-9.243 9.552 10.091 
-6.708 10.827 10.071 
-9.044 9.96 5.64 
-1.473 4.794 0.191 
-5.495 9.453 2.691 
0.201 -0.752 4.229 
-8.495 10.004 11.247 
-1.757 5.754 0.637 
-9.833 9.728 6.354 
-1.489 4.845 0.935 
-9.651 9.939 3.239 
-11.577 9.297 4.85 
-8.242 10.363 9.368 
-16.546 7.53 11.073 
0.298 -1.129 13.04 
-8.231 10.069 9.648 
-2.216 7.156 11.656 
-1.522 4.956 -0.101 
-2.564 8.444 8.397 
-2.083 6.794 4.629 
-8.416 10.314 2.731 
-2.6 8.474 5.036 
-3.477 11.344 5.757 
-1.856 5.273 9.492 
-3.294 10.664 12.083 
-7.476 10.148 6.156 
-4.331 11.492 12.842 
-2.32 7.473 11.462 
-14.963 7.765 9.289 
0.626 -2.16 4.367 
-1.871 6.106 2.974 
-2.039 6.673 1.718 
-2.269 7.378 12.793 
-2.907 9.379 13.958 
-2.98 9.704 4.219 
-9.952 9.675 5.135 
-2.419 7.851 12.087 
-1.583 5.067 10.65 
-2.981 9.582 16.063 
0.776 -2.531 9.869 
-1.518 4.85 10.352 
-7.536 10.571 3.646 
-10.723 9.614 2.939 
-1.623 5.224 7.264 
-3.1 10.046 11.459 
-4.715 10.854 6.218 
-4.622 11.407 15.209 
-3.405 11.062 9.061 
-0.194 0.535 5.642 
-7.832 10.303 6.758 
-2.597 8.466 5.95 
-9.612 8.743 2.802 
0.732 -2.534 9.414 
-8.164 9.837 10.593 
-8.612 8.357 2.69 
0.019 -0.161 5.048 
-10.846 9.497 13.938 
0.379 -1.385 9.971 
-14.346 8.44 14.365 
-0.064 0.106 5.21 
-16.238 7.864 13.362 
-7.851 10.342 6.331 
0.798 -2.608 7.763 
-13.471 8.693 14.409 
-1.272 4.082 7.947 
-9.552 9.715 10.156 
-4.305 11.55 4.435 
0.599 -2.436 6.112 
-1.966 6.393 15.412 
-10.418 9.633 14.758 
-1.058 3.32 15.197 
-2.822 9.163 7.951 
-0.798 2.528 6.87 
-2.629 8.458 13.185 
-1.341 4.36 0.109 
-0.463 1.415 7.85 
-8.024 10.417 7.682 
0.825 -2.743 0.837 
-10.962 9.191 9.634 
-14.467 8.41 15.571 
-15.624 8.111 2.857 
-4.244 11.567 5.32 
-2.517 8.031 1.901 
-0.478 1.388 15.443 
-4.912 11.337 4.426 
-14.401 8.406 9.159 
-0.54 1.847 8.512 
-12.178 8.762 11.277 
-16.09 7.887 3.96 
-2.083 6.653 14.801 
-1.639 5.361 10.137 
0.637 -2.201 8.471 
-13.436 8.766 12.32 
-0.125 0.349 3.032 
-0.064 0.056 12.145 
-16.869 7.241 4.547 
-2.693 8.776 6.143 
-3.052 9.862 11.551 
-15.782 8.054 8.196 
-5.873 10.815 6.99 
-7.327 10.354 6.537 
-11.624 9.321 12.042 
0.036 -0.156 2.801 
-7.174 10.29 2.689 
-2.979 9.608 13.141 
-13.448 8.689 4.202 
-12.472 9.001 11.396 
-0.101 0.223 6.95 
-2.746 8.269 11.079 
-2.372 7.638 13.87 
-4.661 11.397 15.457 
-14.918 8.244 11.635 
-2.814 9.066 13.057 
-1.623 4.227 4.738 
-2.886 9.394 6.065 
-15.867 7.959 11.761 
-1.465 4.666 11.953 
-8.561 10.209 3.118 
-13.469 8.697 15.75 
-0.129 0.243 15.758 
-3.739 11.678 12.585 
-12.36 9.094 7.656 
-3.31 10.77 3.832 
-3.475 11.344 4.735 
-4.513 11.436 9.964 
-7.931 10.448 10.415 
-3.106 10.071 11.77 
-12.35 9.043 15.702 
-3.947 10.547 2.894 
-1.529 4.84 14.907 
0.664 -2.17 6.694 
0.538 -1.734 14.882 
-12.267 9.125 12.868 
-16.275 7.886 11.069 
-1.901 6.182 3.336 
-14.989 8.254 15.976 
0.358 -1.285 8.576 
-1.023 3.33 15.817 
-0.798 2.64 5.436 
-4.355 11.486 10.332 
0.754 -2.583 4.727 
-11.352 9.337 5.632 
-4.776 10.674 15.482 
-1.133 3.646 2.916 
-2.501 8.039 2.622 
-2.467 8.029 0.517 
-16.263 7.851 12.36 
-3.131 10.236 4.534 
-14.959 8.233 9.942 
-7.932 10.461 3.018 
-5.839 10.339 2.894 
-0.022 -0.048 7.931 
-3.914 11.631 15.262 
-3.723 10.952 2.697 
-0.28 0.781 6.403 
-1.922 6.258 2.94 
-1.955 6.263 14.552 
0.031 -0.213 7.333 
-0.853 2.739 3.455 
-3.688 8.174 2.696 
-2.693 8.67 14.16 
-1.416 4.563 6.969 
-10.206 9.609 4.348 
-9.638 9.773 6.545 
-7.14 10.663 7.125 
-4.034 11.584 9.461 
0.43 -1.529 6.896 
-0.563 0.829 13.153 
-8.338 10.323 3.748 
0.307 -1.153 13.767 
-8.454 9.735 10.238 
-7.924 10.457 12.159 
-5.371 10.826 15.477 
-10.159 9.442 4.428 
-8.151 10.323 10.239 
-14.359 8.446 4.385 
-10.066 9.25 4.946 
-7.264 10.611 3.31 
-2.682 8.649 11.191 
-12.632 6.587 2.793 
-0.232 0.643 7.237 
-1.864 6.036 7.755 
-2.648 8.635 4.041 
-4.34 11.498 5.635 
-15.956 7.949 3.248 
-3.217 10.358 16.076 
0.067 -0.268 0.322 
-13.502 8.699 3.553 
-8.635 10.227 7.357 
-8.265 10.164 10.847 
-2.272 7.434 0.315 
-14.243 8.271 6.75 
-13.483 8.681 4.155 
-7.426 10.076 6.859 
-2.513 8.004 0.759 
0.504 -1.773 6.558 
0.371 -1.298 2.748 
-4.783 11.066 4.889 
-3.505 9.443 2.697 
0.228 -0.912 13.798 
-15.526 8.122 11.069 
0.645 -2.12 4.018 
-10.883 9.473 3.722 
-3.977 11.609 14.124 
-1.683 5.467 1.539 
-6.93 10.75 3.93 
-1.124 3.658 -0.163 
-3.46 11.246 8.27 
-0.989 3.095 11.556 
-12.501 8.989 12.678 
-11.251 9.374 7.441 
-8.15 9.937 6.553 
-3.233 10.378 3.441 
-5.748 10.683 2.689 
-10.651 9.556 13.248 
-3.013 9.744 12.072 
-8.015 6.7 2.69 
-8.468 10.086 5.857 
-1.716 5.453 15.158 
-16.895 7.638 8.347 
-1.537 5.002 11.53 
-3.047 9.845 13.977 
-10.484 7.857 2.692 
-7.738 10.451 10.269 
-8.623 9.679 10.454 
-2.982 9.592 15.385 
-1.958 6.262 12.751 
-16.47 7.811 8.6 
-1.569 5.129 3.606 
-2.272 7.422 1.991 
-3.705 11.694 5.436 
-3.524 11.478 7.947 
-1.01 3.169 15.19 
-3.143 10.141 14.057 
-2.256 7.261 11.851 
-0.164 0.535 16.073 
-1.571 4.207 6.835 
-0.141 -0.137 8.877 
-2.708 8.763 14.061 
-11.637 9.131 6.637 
-7.043 10.681 3.041 
-12.752 8.908 7.971 
-10.019 9.812 11.394 
-2.298 7.464 3.952 
-10.655 9.551 11.995 
-3.36 10.952 6.334 
0.008 -0.146 5.727 
-1.781 4.85 6.836 
-15.349 8.146 4.417 
-3.84 11.669 11.245 
-15.158 8.193 15.078 
-13.759 7.394 2.902 
-16.094 7.957 15.515 
-12.638 8.948 8.076 
-5.133 11.277 9.758 
-12.315 9.048 15.983 
0.06 -0.372 13.475 
-2.656 8.625 13.046 
-1.802 5.147 6.898 
-15.569 8.043 3.914 
-6.354 10.111 13.198 
-3.389 11.089 3.222 
-6.035 10.969 9.435 
-10.041 9.639 6.635 
-13.479 8.707 15.366 
-3.502 11.384 8.243 
-1.908 5.276 9.888 
-6.255 8.057 2.688 
-12.162 9.1 13.589 
-3.499 11.385 6.058 
-9.239 9.98 3.811 
-1.284 3.993 1.323 
-15.862 7.976 3.125 
-3.314 8.936 2.7 
-9.841 9.833 8.599 
-1.855 5.944 11.985 
-4.988 11.32 11.128 
-10.914 9.356 10.051 
-13.043 8.654 11.066 
-14.244 8.533 16.188 
-9.544 9.783 5.261 
-0.531 1.645 5.431 
-0.765 2.417 6.755 
-1.211 3.767 6.915 
-2.719 8.87 4.521 
0.54 -1.749 0.234 
-15.769 7.981 8.539 
-1.199 3.857 8.983 
-2.539 8.243 7.661 
-6.936 10.693 4.12 
-8.261 10.296 11.551 
-0.437 -0.24 10.333 
0.727 -2.524 10.202 
-5.542 11.122 11.841 
-13.952 8.562 15.481 
-5.947 11 10.348 
-9.273 9.826 10.874 
-14.576 8.354 10.94 
-9.148 9.789 2.691 
0.486 -1.727 9.339 
-12.962 8.859 11.439 
-9.176 10.002 7.782 
0.694 -2.371 3.919 
-7.151 10.628 12.276 
-14.833 8.341 9.65 
-13.57 8.728 13.662 
-2.692 8.787 5.231 
-16.777 7.748 13.64 
-1.688 5.463 3.808 
-0.482 1.489 4.52 
-0.71 2.248 4.839 
-1.642 5.344 2.534 
-11.731 9.229 11.848 
-3.253 10.639 4.33 
-8.236 10.355 3.643 
-2.043 6.661 1.317 
-15.634 7.958 6.868 
-1.548 4.931 14.504 
-5.662 9.328 2.904 
-1.24 4.034 1.145 
-3.356 10.844 14.602 
0.211 -0.859 12.759 
-7.952 10.298 5.737 
-10.324 9.715 4.44 
-2.081 6.67 12.396 
-6.866 10.711 4.047 
-1.751 5.567 15.565 
-10.854 9.554 6.629 
0.339 -1.291 15.506 
-1.439 4.57 12.142 
-12.344 9.051 15.394 
0.364 -1.355 12.466 
-2.95 9.548 13.269 
-8.224 10.302 10.981 
-14.267 8.174 6.365 
-0.444 1.409 12.59 
-1.415 4.471 14.372 
-2.971 9.637 9.543 
-15.474 8.14 3.445 
-2.722 8.765 13.17 
-2.374 7.726 5.421 
0.066 -0.29 3.349 
-3.214 10.468 3.832 
-2.478 8.077 5.656 
-0.301 -0.33 14.732 
-7.735 10.471 7.848 
-1.855 6.045 2.323 
-0.687 2.142 7.954 
0.269 -1.057 14.965 
-0.333 0.953 11.532 
-2.674 8.648 15.365 
-9.316 10.026 3.534 
-8.539 10.077 6.643 
-9.569 9.943 4.322 
-10.186 8.015 2.695 
-10.844 9.504 13.07 
-1.928 5.329 9.327 
-3.388 10.86 13.654 
-1.457 4.744 3.028 
-0.002 -0.174 14.86 
-3.711 11.737 3.224 
-14.552 8.368 10.251 
-4.552 11.474 4.739 
-5.339 11.191 16.127 
-12.568 9.02 3.239 
-10.507 5.969 2.688 
-2.506 8.149 4.049 
-6.298 8.693 2.904 
-3.283 10.683 6.666 
-9.536 9.842 6.616 
0.403 -1.473 13.499 
-15.088 8.141 10.934 
-2.874 9.341 9.951 
-2.808 9.05 13.675 
-13.947 8.559 14.797 
-2.248 7.335 16.182 
-14.9 8.32 10.247 
-0.298 0.864 7.23 
-1.352 3.909 6.893 
-3.518 11.449 3.443 
-6.905 10.758 3.436 
-15.457 8.089 7.568 
-2.41 7.766 11.539 
-11.942 9.224 4.026 
-16.799 7.674 2.828 
-2.122 6.182 6.891 
0.016 -0.187 8.982 
-8.917 8.482 2.692 
-7.032 10.667 11.671 
-16.873 7.65 3.81 
-4.317 11.554 7.235 
-7.448 10.554 9.461 
-2.843 9.254 4.928 
-16.649 7.779 4.001 
-2.692 8.646 15.797 
-6.942 10.696 10.784 
-10.485 9.601 6.76 
-10.546 6.675 2.691 
-11.086 8.878 2.695 
0.434 -1.579 11.535 
-3.535 11.473 12.565 
-8.748 8.13 2.691 
-3.757 11.684 15.5 
-14.901 4.494 2.702 
-6.441 10.862 10.95 
-11.268 8.093 2.694 
-5.206 9.234 2.695 
-0.358 1.06 7.839 
-16.535 7.76 2.825 
-16.017 7.984 6.948 
-2.851 9.252 8.148 
-2.179 6.097 6.898 
-0.422 -0.238 2.485 
-6.38 7.216 2.689 
-3.666 11.707 3.721 
-9.922 9.284 9.798 
-13.759 8.67 7.527 
0.241 -0.792 11.451 
-6.646 10.779 4.05 
-2.897 9.309 2.7 
-0.759 2.349 11.835 
-2.846 9.252 7.034 
-10.422 6.633 2.691 
-9.737 9.915 3.307 
-6.736 10.522 5.535 
-8.25 10.122 9.144 
-1.878 5.997 14.272 
-8.837 10.022 5.475 
0.496 -1.733 5.011 
-3.422 11.155 5.946 
-5.95 10.993 9.557 
-1.523 4.951 2.614 
-3.006 9.676 15.974 
0.561 -1.885 2.117 
-2.352 7.538 14.78 
-0.767 2.438 3.618 
-4.693 10.757 6.459 
-0.266 0.803 4.95 
-13.763 8.669 6.969 
0.552 -1.89 4.852 
-9.856 9.325 11.237 
-16.144 7.944 7.738 
-0.98 0.425 13.055 
-6.71 10.776 15.793 
-15.373 8.178 4.123 
-3.579 11.668 4.454 
-2.419 7.851 7.77 
-15.065 8.269 3.939 
-0.8 2.536 3.737 
-12.525 8.981 11.231 
-2.514 8.076 15.58 
-16.913 7.416 5.363 
-7.53 10.517 10.868 
-1.169 3.806 3.29 
0.535 -1.885 8.72 
-3.421 11.086 12.673 
-2.626 8.569 2.822 
-15.098 8.178 10.262 
-0.549 -0.271 14.408 
0.177 -0.642 0.11 
-3.167 10.244 13.292 
0.2 -0.747 3.102 
-7.422 10.278 6.92 
-2.204 7.162 6.33 
-9.625 9.441 10.873 
-12.345 6.722 2.902 
-13.466 8.687 3.843 
-2.665 8.628 14.762 
-1.379 4.46 1.02 
0.046 -0.299 13.291 
-8.297 8.306 2.69 
-14.747 8.304 9.256 
-2.179 6.982 13.708 
-14.017 8.395 2.9 
-2.32 7.532 7.854 
-6.129 11.006 2.716 
-3.301 10.769 3.537 
-13.983 8.534 7.163 
-8.324 10.323 7.182 
-2.723 8.75 14.378 
-16.566 7.814 15.269 
-4.632 11.404 14.377 
-9.111 8.676 2.692 
0.274 -0.959 0.301 
-12.246 9.066 8.571 
-9.645 9.882 7.951 
-3.474 11.248 12.668 
-13.867 6.762 2.901 
-1.712 5.561 2.829 
-14.027 8.586 9.769 
-6.225 10.909 3.815 
-1.181 3.766 7.518 
0.086 -0.457 14.434 
-2.259 7.355 5.622 
-0.869 2.916 2.724 
-0.245 0.708 6.868 
-14.293 8.175 6.94 
-9.893 9.851 11.579 
-7.626 10.537 4.042 
-0.001 -0.078 1.554 
-3.614 11.682 15.164 
-2.348 7.658 16.197 
-1.157 3.66 11.257 
-1.212 3.841 14.864 
-11.344 9.359 3.163 
0.206 -0.756 2.74 
-9.381 7.705 2.692 
-13.863 8.637 7.346 
-10.582 6.975 2.802 
-14.357 8.434 14.654 
-2.896 7.331 11.112 
-1.487 4.78 8.336 
-0.939 2.934 12.572 
-15.029 7.982 8.739 
-1.287 3.703 15.112 
-2.515 6.229 11.104 
-4.027 9.96 2.695 
-7.251 10.652 4.128 
-10.228 9.673 3.822 
-1.187 3.844 3.441 
-4.017 10.67 2.696 
-5.016 11.347 7.023 
-5.637 7.646 2.687 
-12.564 8.97 13.786 
-3.044 7.749 11.109 
-2.975 9.639 13.088 
-15.848 7.971 12.373 
-0.766 2.461 12.582 
0.559 -1.983 13.662 
-13.458 8.777 2.914 
-4.854 11.278 6.36 
-0.246 0.804 11.204 
-16.244 7.859 12.971 
-8.995 9.851 11.065 
-5.323 11.253 3.311 
-8.74 8.882 2.692 
-16.485 7.65 11.252 
-13.329 8.736 8.467 
-2.758 9.02 3.759 
0.765 -2.632 7.392 
-13.442 8.763 8.228 
0.624 -2.178 8.881 
-8.172 10.31 7.819 
-3.223 10.463 9.069 
-3.319 10.688 15.883 
-8.167 10.367 10.979 
-10.394 9.59 10.729 
-11.137 9.437 4.936 
-4.976 11.347 6.883 
-6.655 10.8 3.224 
-14.432 8.463 12.137 
-3.427 11.157 8.062 
-5.907 11.034 11.262 
-6.215 9.372 2.689 
0.105 -0.469 8.276 
-5.937 9.24 2.901 
-12.255 9.126 7.537 
-0.179 0.47 7.838 
-6.44 10.427 15.47 
-3.26 10.569 10.752 
-7.641 10.282 5.426 
-8.35 10.261 7.759 
-9.497 9.862 5.829 
0.731 -2.463 2.006 
0.124 -0.518 7.286 
-2.203 7.159 7.046 
-11.308 9.419 6.137 
-15.262 8.209 11.39 
-6.343 10.941 3.149 
-12.036 9.212 2.915 
-1.187 3.735 15.205 
-6.034 10.989 10.364 
-6.268 10.898 10.782 
-2.486 7.99 13.759 
-8.987 9.786 6.021 
-11.553 9.29 15.682 
-5.929 11.055 7.577 
-14.723 5.879 2.702 
-9.324 9.811 10.376 
-10.503 9.55 9.922 
-1.71 5.546 2.228 
-2.442 7.858 14.491 
-9.26 9.872 9.874 
-14.051 8.518 9.441 
-2.046 6.553 13.54 
-5.917 11.015 11.929 
-11.927 9.163 11.346 
0.146 -0.645 15.361 
-1.734 5.632 3.936 
-1.539 4.857 15.973 
-4.136 11.554 16.042 
-1.544 5.05 1.041 
-0.945 2.25 11.078 
0.074 -0.341 4.316 
-15.067 8.269 12.48 
-7.791 9.287 2.688 
-13.751 8.606 10.143 
-0.525 -0.286 0.895 
-7.985 9.038 2.905 
-7.768 10.457 4.407 
-3.395 11.065 5.037 
-11.645 9.171 5.731 
0.602 -2.156 15.858 
-6.634 6.908 2.691 
-3.009 9.744 12.77 
-3.563 11.651 4.36 
-1.928 6.149 15.392 
-1.271 4.06 7.931 
-11.13 9.424 15.832 
-9.838 9.374 9.658 
-16.092 7.905 3.164 
-12.262 9.064 3.527 
-5.128 9.098 2.694 
0.636 -2.154 1.601 
-7.858 10.407 8.022 
-3.245 10.44 15.995 
-5.277 11.195 8.856 
-12.298 9.066 15.467 
-2.022 6.422 3.12 
-5.661 9.388 2.691 
-3.954 11.611 7.482 
-5.444 11.149 7.749 
-16.747 7.713 15.853 
-4.905 11.343 11.859 
-6.541 8.261 2.689 
0.186 -0.763 12.158 
-0.75 2.372 11.146 
-4.827 9.182 2.693 
-4.229 11.549 10.481 
0.284 -1.054 6.937 
-2.131 6.934 5.953 
-13.664 8.63 8.239 
-0.137 0.431 11.098 
0.533 -1.882 9.874 
-16.809 7.704 3.439 
-0.741 2.335 6.068 
-5.235 11.125 15.476 
-1.128 1.361 15.158 
-7.69 9.75 13.197 
-0.227 0.621 8.187 
-2.674 8.732 3.198 
-6.039 10.976 12.634 
-1.432 4.653 2.83 
-1.693 5.472 7.545 
-2.807 9.132 11.159 
-2.486 7.992 14.077 
-2.048 6.67 15.358 
-7.988 10.412 12.824 
-15.929 8.035 8.423 
-3.68 11.716 10.224 
-1.5 3.687 1.042 
-10.123 9.556 9.871 
-3.038 9.861 8.662 
-9.863 9.361 10.302 
-1.775 5.673 12.04 
-1.543 5.032 10.547 
-3.378 11 4.003 
-1.37 4.477 8.605 
-16.883 7.253 4.843 
-15.39 8.187 16.175 
-1.801 5.858 0.504 
-3.625 11.676 12.756 
-14.57 8.353 11.564 
-3.278 10.711 3.258 
-3.12 10.065 13.378 
-7.349 8.027 2.688 
-14.882 8.255 10.059 
-1.398 4.543 0.525 
-2.077 6.782 0.246 
0.185 -0.733 11.726 
-7.268 9.447 2.901 
-10.054 9.692 4.281 
-0.692 2.147 8.355 
0.165 -0.534 9.745 
-2.357 7.658 7.046 
-8.826 9.966 7.053 
-2.159 6.946 14.256 
-11.328 6.583 2.792 
-0.882 2.615 6.148 
-1.89 6.156 3.13 
-0.63 2.015 12.584 
-8.819 10.035 5.121 
-1.229 3.941 8.44 
-4.224 11.525 13.089 
-13.35 8.737 11.392 
-0.477 1.481 4.087 
0.328 -1.222 10.089 
0.173 -0.678 8.451 
-16.436 7.776 8.533 
-2.64 8.564 12.492 
-0.61 1.838 12.076 
-1.443 4.64 8.548 
-12.248 9.084 3.337 
-10.567 9.54 10.516 
-2.271 7.441 -0.098 
-2.47 7.941 14.702 
-1.713 5.447 14.799 
-0.046 0.133 5.973 
-9.883 9.849 16.356 
-7.396 10.178 4.66 
-1.912 6.166 7.827 
-15.888 7.971 3.611 
-15.917 8.014 8.104 
-2.169 6.962 13.972 
-0.708 2.146 15.976 
0.078 -0.437 16.053 
-8.649 9.664 10.235 
-8.643 10.07 5.049 
-8.512 10.215 11.95 
-6.734 10.524 6.43 
-16.804 7.769 8.416 
-1.357 4.425 13.683 
0.075 -0.279 0.522 
-0.526 1.734 4.471 
-10.445 9.68 5.16 
-2.35 7.542 15.063 
0.04 -0.279 12.984 
-4.615 11.405 3.563 
-3.41 11.08 8.941 
-8.238 10.355 8.566 
-9.174 10.006 3.911 
-13.91 8.61 4.282 
-1.317 4.257 3.042 
-5.039 11.273 10.793 
-11.925 9.166 12.997 
0.045 -0.082 1.145 
-3.826 8.716 2.696 
-2.508 8.152 7.154 
-2.747 8.195 2.705 
0.564 -1.922 2.21 
-1.024 3.228 11.271 
-2.838 9.241 5.952 
-15.038 8.23 14.529 
0.322 -1.155 4.05 
-14.53 8.435 9.467 
-3.801 11.65 9.652 
-8.166 6.967 2.69 
-9.65 9.602 15.465 
-8.852 10.118 15.838 
-7.246 9.858 13.195 
-13.507 8.75 3.922 
-0.733 2.223 15.281 
-6.765 10.749 16.071 
0.239 -0.957 15.741 
-2.686 8.701 8.334 
-0.136 0.436 12.462 
-2.078 6.76 3.224 
-8.234 10.349 4.029 
-8.235 10.21 5.618 
-6.4 10.557 2.687 
-3.464 11.352 3.213 
-3.589 11.704 3.286 
-11.486 9.3 11.557 
-13.657 8.646 14.976 
-3.512 11.464 16.177 
-2.892 9.355 10.771 
-13.441 8.199 10.985 
-14.555 8.375 3.025 
-2.711 8.765 11.078 
-2.83 9.154 14.696 
-0.441 1.427 8.247 
-16.25 7.915 7.579 
-2.049 6.563 14.865 
-2.63 6.772 11.105 
-3.462 11.258 8.561 
-2.37 7.725 2.351 
-0.779 2.558 -0.001 
-0.911 0.739 15.153 
-9.724 9.399 5.158 
-5.21 11.269 3.238 
-1.631 5.344 11.033 
-2.443 7.876 11.183 
-1.672 5.433 14.196 
-3.748 11.718 5.657 
-1.817 5.847 8.362 
-0.708 2.275 3.714 
-6.122 10.968 8.859 
-3.507 8.735 2.699 
0.8 -2.738 4.588 
-5.137 11.27 10.765 
-3.399 10.948 15.584 
0.256 -0.952 6.447 
0.115 -0.537 16.097 
-2.739 8.86 15.068 
-3.612 11.714 4.032 
-7.123 10.639 11.06 
-2.959 9.553 12.562 
-0.641 1.135 11.08 
-5.862 11.059 15.49 
-4.134 11.576 5.54 
-14.544 8.428 9.764 
-5.428 11.212 7.059 
-3.477 11.324 6.945 
-2.258 7.36 3.01 
-1.738 5.662 1.221 
-2.373 7.725 3.449 
-2.018 6.57 1.505 
-6.12 7.922 2.688 
-3.937 11.671 7.939 
-6.117 10.945 15.67 
-13.486 8.355 9.263 
-14.183 8.495 15.799 
-3.152 10.161 14.972 
-1.413 4.459 14.973 
-2.877 9.261 15.059 
-0.683 2.063 15.775 
-10.052 9.74 12.399 
-10.488 9.601 5.628 
-0.435 1.321 7.152 
-4.743 11.387 10.953 
-0.866 2.732 8.337 
-11.614 9.262 12.686 
-9.527 9.769 11.235 
-0.709 1.661 15.114 
-1.432 4.534 14.507 
-9.62 9.873 12.46 
-15.765 8.068 3.235 
-2.37 7.726 4.538 
0.463 -1.676 13.608 
-0.013 -0.047 4.615 
-3.042 9.86 11.153 
-2.383 7.764 4.838 
-8.424 9.228 2.69 
-5.144 9.739 2.692 
-1.873 5.221 5.951 
-2.739 8.946 2.934 
-0.948 2.594 6.429 
-7.982 10.383 15.682 
0.131 -0.513 6.37 
-11.497 8.713 5.564 
-11.021 9.522 2.722 
-2.733 8.856 8.247 
-13.092 8.799 3.951 
-10.543 9.648 5.819 
-2.274 7.409 5.066 
-12.131 9.113 14.792 
-2.64 8.554 14.284 
-1.971 6.414 3.236 
-6.079 9.973 2.689 
-7.461 10.262 5.736 
-15.121 8.189 12.048 
-1.674 5.401 7.103 
-7.644 10.22 6.01 
-2.628 6.955 11.14 
-3.964 11.602 11.382 
-10.053 9.657 9.382 
-15.056 8.275 7.257 
-2.161 7.036 2.638 
0.27 -1.048 15.29 
-3.268 10.64 6.752 
0.159 -0.672 10.858 
-12.117 9.168 11.437 
0.634 -2.209 9.114 
-2.992 9.778 3.33 
-0.546 0.816 10.064 
-4.366 11.49 14.34 
-0.494 -0.265 10.074 
0.293 -1.027 0.695 
-0.422 -0.251 0.334 
-2.326 7.56 6.54 
-15.589 8.067 14.173 
-15.139 8.197 3.328 
-11.553 9.279 12.108 
-6.033 8.744 2.689 
-10.839 9.516 14.863 
-0.927 3.03 3.35 
-9.892 9.791 15.893 
-3.36 10.865 12.862 
-10.862 9.553 6.06 
0.743 -2.545 5.628 
-3.947 11.659 6.127 
-1.618 5.345 10.742 
0.411 -1.48 7.068 
-3.896 11.642 14.905 
0.306 -1.141 12.027 
-5.322 11.195 9.371 
-2.748 8.95 4.338 
-0.681 2.072 15.361 
-2.075 6.762 5.649 
0.323 -1.222 11.763 
-15.064 8.063 11.034 
-11.341 9.359 3.432 
-3.336 10.871 6.649 
-1.959 6.351 15.959 
-15.145 8.248 7.628 
-2.772 8.976 14.549 
-3.38 11.006 6.212 
-2.562 8.263 14.979 
-5.719 11.13 9.77 
-0.062 0.028 15.761 
-6.895 10.713 11.688 
-16.401 7.787 3.832 
0.267 -0.991 7.477 
-2.797 9.06 11.254 
-2.638 8.543 13.952 
-7.03 10.723 8.9 
-3.576 11.639 7.76 
-2.729 8.973 11.093 
-0.59 1.851 5.646 
-8.336 10.141 5.028 
-10.547 9.649 5.562 
0.056 -0.261 6.942 
-2.674 8.719 2.831 
-7.757 10.447 12.374 
-1.724 5.523 6.89 
-8.327 10.18 5.738 
0.24 -0.858 2.509 
-2.18 7.002 13.135 
-0.656 0.107 12.6 
0.36 -1.178 8.523 
-3.128 10.145 11.881 
-0.996 3.162 7.821 
-2.487 8.082 4.421 
-0.064 0.192 5.302 
-3.392 10.998 9.868 
-15.289 8.133 12.354 
0.047 -0.282 9.375 
-13.067 8.394 11.283 
-7.978 8.642 2.688 
-15.73 8.091 4.198 
-3.845 11.157 2.696 
-15.047 8.276 7.709 
-0.475 0.591 8.647 
-1.316 4.251 2.138 
-3.134 10.177 10.662 
-13.05 6.248 2.694 
0.328 -1.223 12.985 
-4.084 11.626 7.779 
-0.064 0.135 3.917 
-9.694 9.672 5.249 
-0.003 -0.086 4.358 
-13.543 8.571 9.371 
0.227 -0.919 15.857 
-1.379 4.468 1.637 
-12.092 7.77 2.695 
-7.526 10.392 6.153 
0.426 -1.548 15.593 
-15.945 7.93 4.26 
-0.104 0.259 3.719 
-2.007 6.548 1.232 
0.36 -1.257 3.023 
-5.322 11.253 2.719 
-3.487 11.255 15.071 
-3.38 11.067 3.13 
0.546 -1.889 6.321 
-1.499 4.728 15.894 
-8.667 9.993 6.821 
-10.443 9.63 15.158 
-0.331 0.972 7.128 
-1.571 5.109 2.904 
-2.377 7.762 0.725 
-6.844 10.752 4.224 
-2.411 7.741 13.379 
0.824 -2.755 0.212 
-4.686 10.756 5.032 
-0.042 0.066 4.504 
-2.612 8.391 14.787 
-0.783 2.48 6.221 
-15.243 8.149 7.225 
-3.479 11.308 7.858 
-0.288 -0.177 0.542 
-9.084 6.241 2.69 
-2.864 9.246 15.885 
0.523 -1.848 10.769 
-12.793 8.845 7.149 
-16.36 7.821 12.163 
-1.429 4.648 12.704 
-5.349 11.244 3.137 
-11.642 9.258 14.781 
-0.594 -0.294 9.495 
-9.238 9.987 7.874 
-3.81 11.674 10.56 
0.719 -2.475 5.951 
-15.022 8.282 10.654 
-11.944 8.701 11.265 
-13.027 8.91 3.197 
0.168 -0.671 8.582 
-1.382 4.379 13.065 
-2.406 7.855 3.233 
-8.917 9.739 5.94 
-10.016 7.511 2.806 
-10.59 8.4 2.694 
0.637 -2.193 4.704 
-7.115 8.35 2.908 
0.183 -0.588 1.753 
-1.046 3.447 6.926 
-8.949 9.841 5.424 
-4.408 11.516 4.57 
-12.311 9.11 7.43 
-1.5 4.865 3.023 
-8.535 10.078 6.358 
-0.639 2.034 3.035 
-3.492 11.374 6.144 
-2.925 9.482 9.344 
-2.245 7.343 0.537 
-2.811 9.072 13.351 
-5.032 11.282 10.986 
-1.401 2.437 11.113 
-1.232 3.141 6.891 
-3.185 10.278 12.798 
-1.64 5.256 9.048 
-2.675 8.711 4.835 
-2.997 9.684 12.246 
-0.94 3.041 16.195 
0.767 -2.575 0.532 
-13.493 8.751 11.804 
-3.942 11.613 8.475 
-3.204 10.285 4.458 
0.227 -0.862 6.064 
0.507 -1.842 14.843 
-2.972 9.559 15.982 
-1.987 6.473 3.724 
-1.27 4.138 0.135 
-1.519 4.847 11.692 
-1.671 5.443 3.769 
-1.558 5.018 7.86 
-4.303 11.47 3.63 
-14.874 8.332 7.456 
-13.421 5.711 2.891 
-9.556 9.791 6.033 
-1.376 4.397 9.546 
-16.106 7.902 3.47 
-3.642 11.758 15.955 
-10.562 9.666 8.371 
-0.517 1.539 12.073 
-0.442 1.351 5.642 
-5.466 11.099 6.911 
-5.444 11.178 8.355 
-4.934 11.341 9.953 
-6.033 10.986 10.655 
-11.609 9.321 7.462 
-2.018 6.572 1.908 
-3.144 9.128 8.853 
0.026 -0.15 2.934 
-8.341 10.264 8.361 
-0.668 2.097 5.4 
0.392 -1.491 8.157 
-0.396 -0.308 15.406 
-6.763 8.329 2.906 
-1.586 5.068 11.146 
-9.326 9.959 7.346 
-2.505 7.146 11.093 
-12.134 9.096 4.089 
-9.267 9.983 11.393 
-1.162 3.665 11.553 
-14.107 8.565 12.495 
-3.588 11.608 14.868 
-4.272 11.512 14.723 
-12.128 6.484 2.692 
-14.126 8.555 8.122 
-2.131 6.935 3.142 
-8.577 10.179 3.72 
-4.912 8.259 2.69 
-7.153 10.634 12.191 
-5.608 11.129 11.36 
-10.137 9.339 6.587 
-8.253 10.131 9.844 
-14.353 8.51 6.878 
-2.007 6.436 12.983 
-11.638 9.265 15.31 
-11.721 9.25 4.23 
-4.753 11.37 11.475 
0.349 -1.272 6.629 
-14.184 8.542 14.505 
-3.586 11.678 7.047 
-0.442 1.324 11.256 
-1.196 3.856 3.738 
0.103 -0.45 7.818 
0.239 -0.792 9.719 
-0.901 2.607 4.64 
-3.715 11.72 8.913 
-0.07 -0.109 9.935 
-7.429 10.569 7.078 
-1.473 4.639 2.11 
-11.354 9.397 16.379 
0.144 -0.557 3.528 
-13.576 8.724 3.62 
-13.787 8.659 10.579 
-10.54 9.641 3.437 
0.376 -1.373 12.559 
-12.928 8.922 7.572 
-1.4 4.544 1.735 
-7.133 7.797 2.687 
-0.31 -0.148 9.128 
-13.263 8.78 7.089 
-9.147 9.943 6.963 
-9.328 9.647 2.692 
-12.205 7.301 2.791 
-0.98 3.145 3.651 
-9.522 9.76 6.254 
-13.556 8.464 6.626 
-4.003 11.59 7.978 
-5.343 11.185 12.302 
-2.977 9.702 5.88 
-8.136 10.325 10.751 
-7.069 10.671 3.53 
-3.151 10.252 9.756 
-2.842 9.258 4.333 
-9.972 9.655 5.226 
-5.508 10.348 2.691 
-2.833 9.247 3.231 
-6.319 10.881 7.87 
-2.417 7.837 3.543 
-10.46 9.609 3.94 
-1.512 4.91 15.476 
0.732 -2.527 7.346 
-7.817 10.31 5.035 
-9.442 6.104 2.69 
-3.91 11.653 9.741 
-9.374 9.827 10.157 
-8.314 9.834 9.366 
-12.946 8.915 3.455 
-14.459 8.456 9.253 
-14.476 8.389 14.668 
-10.648 9.621 3.955 
-4.134 11.58 8.653 
-10.145 9.632 6.841 
-2.045 6.544 13.765 
-4.589 11.418 12.929 
-0.512 0.728 9.088 
-0.787 1.867 0.068 
-3.011 9.777 8.135 
-1.889 5.248 6.332 
-1.074 2.294 11.082 
-6.94 10.697 12.071 
-11.708 9.316 3.047 
-8.285 10.235 11.28 
-2.129 6.951 1.723 
-15.231 8.221 8.234 
-13.789 8.604 13.631 
-2.661 8.679 7.139 
-0.195 0.519 6.268 
-4.243 11.579 2.947 
-4.668 9.747 2.692 
-13.59 8.722 10.043 
-3.433 11.167 7.654 
-7.96 10.257 2.899 
-1.795 5.851 2.631 
-9.823 9.804 15.474 
-4.516 11.447 13.753 
0.623 -2.222 15.119 
-9.423 9.96 7.251 
-7.552 10.509 11.961 
-16.843 7.098 5.536 
-6.926 10.764 11.118 
-10.89 9.101 8.762 
-6.975 10.686 15.86 
-1.989 6.489 0.43 
-5.216 11.219 8.45 
-6.401 10.914 3.767 
-0.566 0.179 11.103 
-10.649 9.616 6.558 
-14.846 8.349 2.925 
-12.551 9.063 4.226 
-0.406 1.166 15.963 
-14.48 8.383 11.78 
-4.328 11.491 9.447 
-10.734 9.54 15.014 
-0.394 0.667 15.24 
-4.615 11.436 8.403 
-2.059 5.185 6.904 
-4.274 11.514 4.195 
-1.594 5.158 3.236 
-8.118 10.332 11.84 
-13.841 8.581 14.887 
-6.78 10.509 4.451 
-8.061 10.352 12.547 
-0.473 1.418 4.716 
-4.634 11.426 9.595 
-7.323 10.357 4.953 
-4.707 10.769 15.289 
-9.154 6.375 2.689 
-0.429 1.315 7.751 
-7.644 10.471 3.745 
-12.536 9.044 13.085 
-3.117 10.156 7.151 
-0.591 -0.079 15.284 
-8.889 9.878 6.131 
-2.444 7.965 3.935 
-2.417 7.863 6.853 
-13.932 8.628 2.717 
-11.248 9.454 3.328 
-7.043 10.666 9.376 
-2.962 9.66 5.643 
-9.256 9.985 7.526 
-7.753 10.36 4.924 
-11.954 9.211 16.363 
-11.164 9.459 8.066 
-14.976 8.247 3.037 
-0.99 3.057 15.893 
0.21 -0.844 14.429 
-1.821 5.936 0.128 
-15.086 8.258 3.639 
-8.041 10.371 3.003 
-13.979 8.548 14.473 
-13.016 8.912 2.832 
-2.626 8.394 2.703 
-10.104 7.588 2.693 
-13.561 8.679 3.119 
0.168 -0.563 7.358 
-10.094 9.547 6.236 
-13.041 8.833 14.866 
-4.082 11.622 6.643 
-5.038 9.72 2.899 
-1.635 5.245 8.76 
-0.183 0.435 11.98 
-8.825 9.436 15.465 
-1.128 2.532 6.238 
0.341 -1.288 15.805 
-5.024 11.274 8.669 
-3.325 10.854 7.264 
-6.438 7.498 2.689 
-1.471 4.723 7.161 
-3.486 11.407 3.019 
-2.391 7.752 8.047 
-15.661 8.025 12.049 
-2.713 8.858 2.736 
-11.869 9.265 2.824 
-1.379 4.459 2.23 
-0.368 1.111 6.013 
-6.737 10.823 2.71 
-5.118 11.256 12.259 
-9.241 9.915 6.758 
-10.043 9.271 5.134 
-3.913 11.624 14.305 
-9.109 9.574 10.951 
-3.441 11.074 3.442 
-3.349 10.938 3.843 
-13.53 8.685 15.045 
-0.43 -0.244 1.686 
0.054 -0.276 7.271 
-0.028 0.094 11.531 
-14.686 8.343 16.06 
-9.355 9.957 11.443 
-4.643 11.399 11.055 
-7.941 10.248 6.715 
-0.988 -0.047 15.095 
0.646 -2.289 14.061 
-0.401 1.219 4.55 
-5.264 11.268 8.997 
-4.428 11.519 7.58 
-1.217 2.357 11.118 
-2.577 8.274 15.272 
-6.329 10.874 7.341 
-3.232 10.469 12.168 
-0.758 2.403 6.441 
-0.62 1.065 15.115 
-9.804 6.1 2.688 
-8.89 9.892 6.431 
-6.712 8.677 2.69 
-13.272 8.762 16.092 
-4.218 11.573 4.134 
-7.519 10.459 6.93 
0.404 -1.4 0.75 
-10.885 9.484 13.289 
-1.492 4.782 9.24 
-15.545 8.123 11.827 
-8.453 10.285 7.65 
-2.886 9.286 14.781 
-7.582 9.874 7.094 
-13.777 8.661 8.364 
-1.429 2.855 11.129 
-7.719 10.448 4.146 
-15.169 7.846 2.693 
-7.519 10.13 6.608 
-9.918 9.841 4.13 
-3.164 10.35 2.845 
-2.306 7.34 1.005 
-0.176 0.538 16.2 
-14.169 8.542 8.44 
-0.502 0.54 13.007 
-2.906 9.463 4.842 
-1.688 5.463 3.634 
-14.929 8.311 8.346 
-13.588 8.666 14.162 
-1.248 3.926 14.179 
-8.03 10.424 11.19 
-14.179 8.541 8.739 
-3.42 11.155 3.631 
-8.455 10.233 12.168 
-0.682 0.714 12.56 
-7.559 10.501 7.665 
-5.503 11.156 7.057 
-14.114 8.513 14.772 
-6.395 10.915 7.127 
-0.227 0.673 15.129 
-9.535 9.959 4.007 
-16.843 7.148 4.64 
-7.127 8.544 2.809 
-3.923 11.64 11.269 
-2.379 7.75 1.718 
-2.719 8.774 11.336 
-7.118 10.713 4.178 
-7.5 10.524 11.478 
-1.283 4.155 2.909 
0.35 -1.27 5.332 
-13.13 8.869 4.117 
-9.452 9.766 10.944 
-15.085 8.136 11.162 
-1.183 3.739 11.797 
-1.27 4.223 4.231 
-6.677 10.831 8.953 
-9.228 9.926 5.922 
-6.258 10.899 8.534 
-0.912 3.066 2.708 
-1.616 5.144 14.397 
-11.268 9.449 3.033 
-7.412 10.332 4.808 
-5.353 11.18 12.429 
-2.466 7.956 11.35 
-1.829 5.949 1.621 
-6.911 10.469 5.384 
0.322 -1.194 10.487 
-14.581 8.354 10.449 
-11.737 9.256 3.537 
-10.431 9.63 13.792 
-9.839 9.66 6.844 
-9.649 9.826 4.947 
0.55 -1.799 15.509 
-9.224 9.385 2.802 
-3.586 11.673 7.452 
-9.588 9.386 10.372 
-5.117 11.255 9.449 
0.092 -0.466 5.171 
-9.164 9.952 5.402 
-1.869 5.226 4.697 
-0.98 3.046 15.304 
0.311 -1.163 11.68 
-16.269 7.696 11.068 
-1.401 4.565 14.294 
0.531 -1.841 6.746 
-8.235 10.186 4.921 
-7.546 10.505 9.087 
-2.376 7.658 14.576 
-13.859 8.541 7.136 
-5.214 11.246 11.37 
-3.076 10.031 4.512 
-15.668 8.088 7.339 
-2.88 9.358 8.057 
-7.49 10.11 6.207 
-1.568 5.019 10.264 
-16.747 7.76 8.147 
-2.069 6.636 11.979 
-10.058 9.675 5.074 
-1.691 5.446 7.344 
0.467 -1.529 12.482 
-12.036 9.136 13.703 
-11.19 9.399 15.311 
-3.096 9.975 14.66 
-1.598 5.142 9.864 
-2.984 9.704 7.576 
-1.945 5.238 5.612 
-3.118 10.155 3.634 
-4.318 11.556 2.711 
-6.043 10.989 9.75 
-10.247 9.679 12.321 
-8.878 9.96 6.633 
-7.105 10.127 15.466 
-8.79 9.782 6.751 
-1.314 4.249 3.947 
0.327 -1.149 2.316 
-9.288 7.019 2.69 
-0.895 2.844 8.063 
-5.35 11.177 10.34 
-9.917 9.844 11.073 
0.287 -1.132 16.063 
-3.315 10.654 13.977 
-15.718 8.008 12.75 
-2.76 8.931 13.877 
-0.683 2.161 3.8 
-6.555 10.806 7.927 
-15.264 8.148 12.577 
0.03 -0.134 16.201 
-5.12 8.107 2.689 
-4.854 11.246 15.143 
-3.434 11.155 10.076 
-0.678 -0.335 15.006 
-6.105 9.569 2.69 
-5.942 10.993 8.919 
-14.161 8.238 4.435 
-8.852 9.944 5.978 
-0.475 0.584 8.977 
-4.228 11.543 12.367 
-4.604 11.461 6.021 
-0.373 1.061 15.817 
-15.56 8.075 15.887 
-14.689 8.324 12.655 
-0.45 1.464 11.917 
-0.468 1.419 6.437 
-14.263 8.514 10.365 
-1.206 3.852 9.886 
-2.205 7.182 4.123 
0.564 -1.973 6.135 
-1.046 3.399 15.936 
-3.576 11.662 6.744 
-16.264 7.835 7.703 
-1.428 4.548 11.251 
-5.507 11.172 12.828 
-2.416 7.766 12.747 
-1.64 5.231 14.458 
0.679 -2.286 3.132 
-12.093 9.024 7.063 
-0.538 0.724 14.778 
-12.375 9.038 14.887 
-14.259 8.453 8.886 
-8.19 7.841 2.69 
-1.641 5.346 2.032 
-3.305 10.763 4.849 
-2.916 9.475 8.141 
-3.843 11.666 9.334 
-6.55 10.586 2.687 
-12.307 9.11 7.016 
-10.965 9.463 14.454 
0.469 -1.639 3.91 
-12.934 8.92 7.816 
0.469 -1.692 13.491 
-1.217 3.962 12.066 
-12.237 9.076 12.181 
-2.347 6.449 11.088 
-4.998 11.318 11.651 
-2.807 9.161 2.838 
-4.112 11.573 15.905 
-13.841 8.647 3.911 
-9.805 9.741 5.269 
-15.873 8.023 11.236 
-1.965 6.408 3.953 
-3.211 10.464 5.142 
-10.266 6.391 2.806 
-2.577 8.277 14.547 
-1.938 6.168 15.166 
-13.554 8.728 7.561 
-6.136 10.964 3.056 
-1.236 4.016 15.554 
-4.893 11.326 12.399 
-2.423 7.866 7.941 
-10.924 8.507 2.901 
-4.732 11.377 12.923 
-0.841 1.803 15.235 
-2.378 7.647 12.477 
-7.112 9.557 2.689 
-16.868 7.673 14.68 
-1.596 5.17 4.111 
0.233 -0.785 6.387 
-2.833 9.157 11.78 
-16.734 7.706 8.614 
-14.058 6.81 2.698 
-1.416 4.456 15.654 
-0.969 3.001 15.618 
-2.936 9.477 11.449 
-2.972 9.613 14.159 
-12.939 8.857 12.965 
-9.222 10.055 3.639 
-1.618 5.171 10.251 
-2.161 7.043 -0.173 
-0.555 1.802 5.843 
-0.286 0.86 5.54 
-0.553 1.719 6.833 
0.44 -1.588 11.063 
-12.035 8.779 2.693 
-13.753 8.401 6.82 
-10.044 9.744 12.044 
-10.503 9.665 12.402 
-0.949 3.04 4.122 
-9.375 9.953 16.059 
-5.018 11.337 7.34 
-15.741 8.062 4.02 
-3.307 10.651 16.088 
-8.727 10.173 8.265 
-9.65 9.743 2.692 
-2.342 7.664 -0.294 
-1.669 5.445 2.921 
-7.231 10.658 8.275 
-0.225 0.654 3.93 
-5.143 11.266 11.254 
-11.674 5.934 2.69 
-14.918 8.314 3.901 
0.3 -1.053 0.434 
-3.154 10.266 7.53 
-12.541 9.041 7.062 
-2.959 9.551 12.171 
-2.076 6.564 2.017 
-14.52 5.928 2.7 
-7.724 10.513 7.012 
-11.776 5.492 2.69 
-15.783 7.976 3.822 
-14.167 8.484 12.65 
-2.812 8.145 11.08 
-1.381 4.38 13.655 
-14.784 8.29 8.252 
-12.579 8.958 12.551 
-7.712 8.364 2.689 
-7.443 10.566 9.759 
-4.739 11.368 13.249 
0.488 -1.73 8.234 
-11.567 5.924 2.795 
-15.375 8.171 3.747 
-0.99 3.137 8.27 
-3.028 9.863 4.837 
-13.574 8.461 4.453 
-8.761 10.187 2.824 
-3.038 9.835 10.667 
-5.014 11.286 8.874 
-9.418 9.85 6.044 
-10.288 9.674 13.341 
-13.543 8.733 8.227 
-2.166 6.955 11.46 
-14.08 8.573 12.254 
-14.531 8.438 7.117 
-7.039 10.715 7.866 
-1.245 4.033 1.325 
-14.08 5.314 2.696 
-1.516 4.064 4.725 
-7.343 10.299 5.335 
-3.027 8.746 11.08 
-5.221 8.519 2.689 
-1.608 5.168 8.035 
-6.963 10.751 6.882 
-8.294 10.262 11.101 
-2.17 7.145 8.421 
-11.547 9.298 3.344 
-5.031 11.342 9.105 
-13.943 8.612 12.579 
-1.18 3.873 2.243 
-2.546 8.256 13.591 
-15.452 8.099 13.455 
-1.672 5.441 1.501 
-5.944 10.994 8.176 
-5.308 11.219 7.848 
-1.932 6.386 16.246 
0.122 -0.566 12.501 
-10.183 9.486 9.361 
-6.304 10.92 7.335 
-3.474 11.326 6.07 
-4.133 11.573 12.764 
0.316 -1.124 3.049 
0.325 -1.226 13.527 
-2.544 8.271 3.833 
0.05 -0.172 4.61 
-3.526 11.442 9.965 
-4.713 11.385 6.347 
-8.526 9.806 6.096 
-2.575 8.411 4.863 
-8.182 10.299 9.986 
-0.36 -0.289 13.452 
-2.661 8.637 8.173 
-6.734 10.759 12.435 
-0.36 1.066 7.632 
-2.15 5.715 6.912 
-0.592 1.845 6.259 
-3.308 10.77 8.159 
-4.672 10.76 7.058 
-8.243 10.343 3.438 
-15.123 8.221 11.28 
-12.38 9.034 14.251 
-8.638 10.009 6.554 
-14.086 8.502 8.963 
-10.63 9.621 7.153 
-1.143 3.821 10.194 
-7.647 10.006 6.256 
0.253 -0.889 0.848 
-16.838 7.729 8.257 
-15.761 7.997 12.477 
-3.999 11.618 10.386 
-8.623 10.252 2.933 
-9.931 9.347 2.796 
-16.702 7.727 14.138 
-3.345 10.867 7.735 
-15.742 8.042 6.879 
-3.317 8.861 11.108 
-6.232 10.929 8.239 
-1.494 4.774 9.931 
-11.322 9.351 7.525 
0.485 -1.664 1.166 
-4.543 11.474 5.134 
-1.303 3.049 15.113 
-13.473 8.762 14.275 
0.032 -0.103 12.219 
-14.273 8.449 4.215 
-7.948 10.387 9.958 
-8.024 10.427 11.267 
-12.927 8.918 16.295 
0.21 -0.863 5.356 
-10.042 9.575 5.464 
-10.917 9.357 10.499 
0.715 -2.526 7.869 
-3.083 10.01 8.659 
0.749 -2.593 8.185 
-9.564 9.776 5.757 
-3.232 10.368 6.131 
-14.708 8.377 12.072 
-5.578 11.113 10.961 
-4.859 11.286 4.93 
-7.413 10.17 5.045 
-3.133 10.164 9.358 
-10.339 7.934 2.692 
0.29 -0.969 6.627 
-1.227 3.928 8.249 
-14.911 8.319 4.016 
-14.932 7.668 10.068 
-1.823 5.3 9.866 
-1.978 6.448 1.015 
-12.645 8.938 7.328 
-12.58 7.111 2.901 
-2.035 6.652 6.455 
-3.21 8.359 11.114 
-8.842 10.106 3.847 
0.155 -0.655 12.979 
-1.709 5.562 16.191 
-1.869 6.12 0.46 
-2.371 7.74 0.62 
-11.634 7.037 2.692 
-13.406 8.783 14.719 
0.537 -1.9 11.559 
-9.423 9.949 7.45 
-2.013 6.465 11.248 
-8.836 9.972 2.901 
-11.941 9.272 16.099 
-1.833 5.962 2.213 
-4.797 11.076 13.246 
-13.665 8.43 5.971 
-16.909 7.706 11.591 
-14.533 8.435 7.23 
-2.922 9.348 3.446 
-1.219 3.875 10.446 
-2.374 7.751 0.923 
-6.918 10.726 10.474 
-4.006 11.62 8.979 
-8.921 6.154 2.692 
-16.085 7.959 11.232 
-15.46 8.151 7.44 
-3.272 10.681 16.111 
-16.641 7.744 14.761 
-10.896 7.596 2.794 
-12.557 9.036 11.709 
-1.297 4.171 4.131 
0.095 -0.357 2.245 
-12.02 9.149 15.368 
-2.861 9.25 12.044 
-1.389 2.458 6.352 
-9.422 9.94 16.177 
-3.087 9.969 12.346 
-2.721 8.761 12.874 
-3.21 10.456 4.736 
-12.526 9.047 4.027 
-0.196 -0.141 1.436 
0.506 -1.835 7.052 
-3.565 11.637 5.539 
-8.348 10.258 7.918 
-2.622 8.45 12.296 
-0.686 2.184 3.417 
0.549 -1.883 2.492 
0.628 -2.243 15.635 
-9.832 9.809 16.073 
-1.388 4.471 7.333 
-11.47 8.666 5.778 
-11.581 9.329 7.663 
-11.872 9.187 15.466 
-1.409 4.561 2.629 
0.205 -0.846 15.686 
-3.248 10.556 10.16 
-1.284 4.159 2.632 
-0.307 0.915 4.648 
-2.814 9.161 5.541 
-0.537 1.617 15.115 
-2.617 8.054 11.075 
-3.555 11.572 7.034 
-10.28 9.562 9.448 
-8.645 10.223 8.469 
-2.856 9.252 14.147 
-9.824 9.866 7.128 
0.136 -0.508 0.266 
-9.336 9.976 3.228 
-1.877 5.99 14.187 
-1.147 3.768 8.398 
-14.353 8.485 8.233 
0.555 -1.963 10.459 
-1.584 5.067 12.051 
-1.457 4.62 13.582 
-1.226 3.957 3.023 
-7.552 10.561 7.142 
-1.828 5.3 8.71 
-2.862 9.227 13.079 
0.845 -2.851 1.736 
-2.033 6.533 12.177 
-3.853 11.662 10.274 
-3.817 11.678 11.14 
-3.274 10.632 8.778 
-14.85 8.337 13.72 
-0.555 0.907 13.92 
-8.203 9.965 10.066 
0.006 -0.122 5.412 
-6.587 10.817 10.824 
-0.06 0.141 3.135 
-2.218 5.58 11.104 
-12.962 8.865 3.243 
-10.474 7.735 2.693 
-9.244 9.799 5.85 
-0.174 0.391 15.62 
-2.023 5.216 10.274 
-7.637 10.481 7.257 
-2.532 8.175 12.669 
-16.253 7.909 14.889 
-3.635 11.774 15.26 
-1.011 3.237 4.154 
